# .PCD v0.7 - Point Cloud Data file format
VERSION 0.7
FIELDS x y z rgb
SIZE 4 4 4 4
TYPE F F F F
COUNT 1 1 1 1
WIDTH 1006
HEIGHT 1
VIEWPOINT 0 0 0 1 0 0 0
POINTS 1006
DATA ascii
0.52227861 -0.022671731 0.70356721 1.926852e-38
0.52738535 -0.022847624 0.70423967 1.8346563e-38
0.53074139 -0.021435842 0.70478219 1.834693e-38
0.59896708 -0.024029437 0.70464307 1.7331694e-38
0.6031301 -0.02261845 0.70311779 1.9360719e-38
0.51883292 -0.019235972 0.70071197 1.3460558e-38
0.52280438 -0.017617291 0.7019074 1.4013733e-38
0.52776504 -0.017392563 0.70335734 1.7517168e-38
0.53249443 -0.01738997 0.70447242 1.834693e-38
0.5943374 -0.019576021 0.70083392 4.0588904e-39
0.60309047 -0.019319251 0.70480025 1.6870714e-38
0.60763568 -0.017893251 0.70328176 1.8992297e-38
0.61163461 -0.016415305 0.70241678 2.0467068e-38
0.52475607 -0.013760034 0.70026124 1.3644953e-38
0.52791238 -0.012491383 0.70136851 1.2354214e-38
0.53220499 -0.012527305 0.70336431 1.7056197e-38
0.53672951 -0.01204296 0.70441073 1.364572e-38
0.54010677 -0.011029758 0.70499617 4.151456e-39
0.60847002 -0.012178336 0.70478666 2.0282676e-38
0.6124323 -0.01355289 0.70335776 1.9913892e-38
0.61667693 -0.011637208 0.70286846 2.0283039e-38
0.62040955 -0.010105513 0.7023682 2.0559625e-38
0.53299254 -0.0081947148 0.70156026 6.5474087e-39
0.53751767 -0.0079282671 0.70339036 5.165252e-39
0.54136741 -0.0076968083 0.70436591 4.2436586e-39
0.60952425 -0.0081350431 0.70481348 2.028267e-38
0.61286378 -0.0090363855 0.70471138 1.936071e-38
0.61756766 -0.0083441697 0.70432556 1.8992297e-38
0.62265438 -0.0073979311 0.70314264 1.9545472e-38
0.62656552 -0.0052906666 0.70289421 1.7701198e-38
0.53790939 -0.0033723027 0.70139313 3.5979067e-39
0.54251492 -0.0026677321 0.70314187 4.1514588e-39
0.54646593 -0.0013383314 0.70427805 4.151456e-39
0.54328865 0.0017615005 0.70140344 3.2287514e-39
0.54743671 0.0026450439 0.7030443 3.8748635e-39
0.55100626 0.0036392205 0.70429212 3.9667004e-39
0.54867125 0.0060919248 0.70147413 3.5979067e-39
0.55265868 0.0072194943 0.70262176 3.874502e-39
0.55665028 0.008352208 0.70379466 3.7823035e-39
0.55320174 0.01030725 0.70069808 3.874502e-39
0.55803293 0.011967305 0.70206875 4.6116845e-39
0.56184089 0.013774166 0.70351481 1.0418116e-38
0.56312835 0.017723836 0.70150965 1.097128e-38
0.56711996 0.018656844 0.70380062 1.1893236e-38
0.57275993 0.019630266 0.70493603 1.9453278e-38
0.57577854 0.019624319 0.70497978 1.9176691e-38
0.59795207 0.019930582 0.70358741 1.6041679e-38
0.61292183 0.019549523 0.70464599 1.4935692e-38
0.61741793 0.018719193 0.7032634 1.4843496e-38
0.62100101 0.0170602 0.70293701 1.5027888e-38
0.56807673 0.022198275 0.70139271 1.0602497e-38
0.57233065 0.0229492 0.70373362 1.4843496e-38
0.57733113 0.022793815 0.70434326 1.9176691e-38
0.58241451 0.022797158 0.70441413 1.5673257e-38
0.58717549 0.023120008 0.70466715 1.4382518e-38
0.59381127 0.023340279 0.70490408 1.5120083e-38
0.59734243 0.02388175 0.70488882 1.5120083e-38
0.6019212 0.023618702 0.70491827 1.5120083e-38
0.60796309 0.02313765 0.70462924 1.5581061e-38
0.61224085 0.022816673 0.70337009 1.5027888e-38
0.61694974 0.021178426 0.70132899 1.5027888e-38
0.57341647 0.027151635 0.70167392 1.1432258e-38
0.57751143 0.027757796 0.70320392 1.7148387e-38
0.58221674 0.027580505 0.7034176 1.8162539e-38
0.58681321 0.02759858 0.70411283 1.4382518e-38
0.59313482 0.027622575 0.70487815 1.5120083e-38
0.59797812 0.027648604 0.70456147 1.5304475e-38
0.60224682 0.027668709 0.70454365 1.5120083e-38
0.60625142 0.027281815 0.70424843 1.5765453e-38
0.61155987 0.026906693 0.70127189 1.5027888e-38
0.57810336 0.031746492 0.70156538 1.2262019e-38
0.58248454 0.032599885 0.70257026 1.7424974e-38
0.58711165 0.032402638 0.70376009 1.7609365e-38
0.59050876 0.032424662 0.70467418 1.6318626e-38
0.59811485 0.032168005 0.70464867 1.5765453e-38
0.60222888 0.032126758 0.70394987 1.5857648e-38
0.60740471 0.031782497 0.70108438 1.5765451e-38
0.58321208 0.03622283 0.70148945 1.3828619e-38
0.58763164 0.037384331 0.70265234 1.6410818e-38
0.59235531 0.037264671 0.70426625 1.7517168e-38
0.59793264 0.037343148 0.70338696 1.9176329e-38
0.58841717 0.040463977 0.70098078 1.3091778e-38
0.5917291 0.041304473 0.70201111 1.4658739e-38
0.45413846 0.19947106 0.70204926 4.5132502e-39
0.45755503 0.19733793 0.70268732 4.5107181e-39
0.46246377 0.19582777 0.70201141 7.2823716e-39
0.466434 0.19640848 0.70336556 6.7248594e-39
0.47179574 0.19860119 0.70319617 8.1103245e-39
0.44966197 0.20472066 0.70008188 5.8119442e-39
0.45185193 0.20231439 0.70292866 4.4203287e-39
0.47759664 0.20313968 0.70347118 8.0181289e-39
0.44805363 0.20785354 0.70213401 4.6061689e-39
0.45010889 0.20551349 0.70447856 3.8646242e-39
0.47834772 0.205954 0.70488644 7.8301237e-39
0.44390503 0.21380109 0.70189333 4.6994492e-39
0.44580802 0.21157925 0.7031455 4.1426601e-39
0.4397665 0.21926485 0.70122129 4.9774836e-39
0.44180822 0.21727082 0.70300114 4.2352172e-39
0.43779618 0.22269712 0.70253539 4.4206917e-39
0.44021153 0.22060284 0.70477074 4.0486539e-39
0.43386099 0.22804359 0.70245594 4.3288576e-39
0.43564561 0.2260168 0.70356083 3.77243e-39
0.43138745 0.23248906 0.70268446 4.2352172e-39
0.42976633 0.23739946 0.70112395 3.9579059e-39
0.4309192 0.23762128 0.70328075 3.77243e-39
0.43116206 0.24226329 0.70270121 4.0497385e-39
0.43308535 0.24649909 0.7024008 4.1430202e-39
0.43708491 0.24968126 0.70338047 3.8649872e-39
0.43835321 0.25121585 0.70177674 4.4199686e-39
0.44278806 0.2535409 0.70259988 4.32741e-39
0.44629046 0.25435555 0.7040863 3.9564597e-39
0.52662003 -0.33022279 0.7077176 1.3837052e-39
0.52411169 -0.32715958 0.70690936 1.5684608e-39
0.5257417 -0.32861012 0.70887107 1.2918697e-39
0.52249509 -0.32273167 0.7068156 2.6755622e-39
0.52297592 -0.31753618 0.70781231 2.8606751e-39
0.52323496 -0.31245512 0.70699805 2.8603164e-39
0.52375036 -0.30740088 0.70779896 2.8599577e-39
0.52450114 -0.30295879 0.70655978 2.8599577e-39
0.52517152 -0.30124417 0.7087999 2.861394e-39
0.52598864 -0.29757878 0.7073139 2.8603164e-39
0.52732068 -0.29273564 0.70761752 2.861394e-39
0.52875972 -0.28739208 0.70764893 4.2450333e-39
0.5296734 -0.28375056 0.70700222 1.143298e-38
0.53035021 -0.28133115 0.70726758 1.0421713e-38
0.53130352 -0.27766177 0.70775098 1.051355e-38
0.53230792 -0.27249923 0.70736676 1.0145849e-38
0.53323072 -0.26751149 0.70770895 1.0789415e-38
0.53401512 -0.26220503 0.70761454 1.0145849e-38
0.53456664 -0.25804764 0.70720822 1.069758e-38
0.53507948 -0.25623941 0.70900714 9.8699841e-39
0.53539002 -0.25249946 0.7075513 1.1341146e-38
0.53602052 -0.24718918 0.70724374 1.0789415e-38
0.53659737 -0.24277534 0.7076627 1.106528e-38
0.53719312 -0.23761031 0.7076869 1.1524817e-38
0.53773403 -0.23224929 0.70712173 1.1341146e-38
0.53835779 -0.22747798 0.70773458 1.1432981e-38
0.53895205 -0.22225215 0.70771074 1.1617009e-38
0.53940952 -0.21746305 0.70694774 8.3905576e-39
0.53980935 -0.21352606 0.70619982 3.0443461e-39
0.54025817 -0.21189819 0.70818776 2.8603164e-39
0.54080039 -0.20728932 0.70780277 2.8599577e-39
0.54131597 -0.2025013 0.70696777 2.8599577e-39
0.54206347 -0.19737937 0.70764107 2.8599577e-39
0.54269671 -0.19229782 0.70784098 2.8599577e-39
0.54348159 -0.187372 0.70714855 2.8599577e-39
0.54430491 -0.18311945 0.70667231 2.8599577e-39
0.54554713 -0.18156752 0.70888835 2.8603164e-39
0.54496509 -0.17913444 0.70618564 2.8599577e-39
0.54599565 -0.17734338 0.70764476 2.8599577e-39
0.54694504 -0.17260331 0.70736504 2.8599577e-39
0.54811013 -0.16744564 0.70736802 2.8599577e-39
0.54902554 -0.16306262 0.70719701 2.8599577e-39
0.55045176 -0.16119711 0.70826823 2.8599577e-39
0.55320424 -0.15887438 0.7076872 2.8599577e-39
0.55726796 -0.15641534 0.70753759 2.8599577e-39
0.55965173 -0.15497425 0.70745015 2.8599577e-39
0.56032956 -0.15484938 0.70906484 2.8599577e-39
0.53411102 -0.076547407 0.70533347 1.7332417e-38
0.5374577 -0.076787129 0.70594114 1.7332415e-38
0.5408777 -0.076269835 0.70647395 1.9361082e-38
0.52771652 -0.071462557 0.70504105 1.7608642e-38
0.53264827 -0.072123729 0.70628792 1.4842769e-38
0.53739667 -0.072086625 0.70725083 1.9453275e-38
0.54112148 -0.072380655 0.70739412 1.98217e-38
0.52438504 -0.066594996 0.70572537 1.1801041e-38
0.52753925 -0.06735155 0.70628744 1.7608639e-38
0.53310156 -0.067206115 0.70664763 1.8623514e-38
0.53751016 -0.067516282 0.70710468 1.9176322e-38
0.54181194 -0.067635149 0.70743573 1.9545472e-38
0.54645568 -0.067268007 0.70593596 1.9268524e-38
0.51781809 -0.060054507 0.70580792 1.3183975e-38
0.52248508 -0.062057298 0.7060464 1.3644953e-38
0.52755058 -0.062231727 0.70649755 1.7793394e-38
0.53240526 -0.062602706 0.70631844 1.9822055e-38
0.53721476 -0.06263867 0.70650131 1.9176688e-38
0.54235965 -0.062519439 0.70704418 1.908413e-38
0.54743475 -0.061883517 0.70727617 1.9637669e-38
0.55141538 -0.061659969 0.70665234 1.9913896e-38
0.55567884 -0.061298743 0.70500678 1.8807187e-38
0.50994569 -0.055031285 0.70528656 1.2538606e-38
0.51322854 -0.056516688 0.7061041 1.2538606e-38
0.517349 -0.056969587 0.70643753 1.5120083e-38
0.52191204 -0.057282295 0.70653373 1.5212279e-38
0.52758622 -0.057684183 0.70645082 1.5488866e-38
0.53261977 -0.057615317 0.70621556 1.7885951e-38
0.53720659 -0.057408415 0.70604128 1.9545111e-38
0.54286981 -0.057217725 0.706393 1.89001e-38
0.54809165 -0.057527557 0.70714909 1.9268882e-38
0.55296606 -0.057860821 0.70716745 2.0006092e-38
0.55741638 -0.057428226 0.70653588 1.9268522e-38
0.56128144 -0.055884108 0.70625871 1.5765849e-38
0.50881362 -0.05163319 0.70583791 1.1798871e-38
0.51252949 -0.052121006 0.70674163 1.4843136e-38
0.51754314 -0.052485604 0.70617723 1.5027888e-38
0.52207673 -0.052775893 0.70631504 1.5027888e-38
0.52767277 -0.052384298 0.70633698 1.5212279e-38
0.53237277 -0.052373338 0.70618445 1.539667e-38
0.5374558 -0.052280769 0.70594412 1.7332778e-38
0.54272193 -0.052844886 0.7058773 1.9452915e-38
0.54708064 -0.052689351 0.70627391 1.9084134e-38
0.55227453 -0.052410021 0.70680565 1.9176328e-38
0.55754668 -0.052126184 0.70705819 1.9821696e-38
0.5629434 -0.05254817 0.70655364 1.8439148e-38
0.56762505 -0.051614463 0.70584941 2.0190842e-38
0.50448006 -0.045723751 0.70532084 1.1798143e-38
0.50771153 -0.047194228 0.70675743 1.2444239e-38
0.51275641 -0.047832988 0.70714188 1.6133875e-38
0.51792079 -0.047583155 0.70584804 1.5212279e-38
0.52240062 -0.047532961 0.70588475 1.5027888e-38
0.5279519 -0.04710874 0.70597005 1.5027888e-38
0.53261644 -0.047387198 0.70604354 1.5120083e-38
0.53748077 -0.047689397 0.70591199 1.539667e-38
0.54242581 -0.047999412 0.70572668 1.742461e-38
0.54713047 -0.0475021 0.70590359 1.9176328e-38
0.55271405 -0.047041256 0.70625508 1.9453276e-38
0.55772048 -0.047536928 0.7066856 1.9453278e-38
0.56241363 -0.047390312 0.7068103 1.9914256e-38
0.56753516 -0.047913533 0.70636845 1.8716087e-38
0.57174528 -0.04724095 0.70591843 5.9035527e-39
0.57561809 -0.045291334 0.7051729 5.0738019e-39
0.5039258 -0.042376466 0.70608503 1.1154582e-38
0.50728053 -0.043134805 0.70727253 1.7055467e-38
0.51243281 -0.042158935 0.70709699 1.8162539e-38
0.51761758 -0.042400952 0.70590121 1.6318626e-38
0.52268553 -0.042278614 0.70550615 1.5120083e-38
0.52768838 -0.042773668 0.70560926 1.5027888e-38
0.53218758 -0.042616963 0.70567721 1.5027888e-38
0.53780252 -0.042564955 0.70572096 1.5120083e-38
0.54246724 -0.042619862 0.70567364 1.5212279e-38
0.54718614 -0.042103134 0.7058332 1.6410459e-38
0.55282605 -0.042400211 0.70611477 1.9360719e-38
0.55749291 -0.042641256 0.70644075 1.9453276e-38
0.5622353 -0.042888727 0.70672274 1.8992307e-38
0.56738096 -0.042723484 0.70673174 9.2214772e-39
0.57223189 -0.042187408 0.70655936 4.981602e-39
0.5778513 -0.041890372 0.70593101 4.9816062e-39
0.58152437 -0.040837348 0.70547116 5.0738019e-39
0.50441879 -0.039017841 0.70540524 9.0351717e-39
0.50759083 -0.037859101 0.70624721 1.7148384e-38
0.51279521 -0.037380844 0.70607126 1.9360715e-38
0.51743728 -0.037236713 0.70578957 1.8439126e-38
0.52292538 -0.037769511 0.70518756 1.5120083e-38
0.52770615 -0.037584227 0.70523167 1.5120083e-38
0.53224689 -0.037491776 0.70529127 1.5027888e-38
0.53769177 -0.037309531 0.7053926 1.5027888e-38
0.54253191 -0.037242185 0.70559096 1.5027888e-38
0.54720086 -0.037470847 0.70581448 1.5027888e-38
0.55288255 -0.037751101 0.70604396 1.7056192e-38
0.55761337 -0.037981715 0.7062912 1.9084132e-38
0.56247765 -0.037442327 0.70642465 9.2218331e-39
0.56731093 -0.037348032 0.70646632 4.889405e-39
0.57256371 -0.037164878 0.70640343 4.8894064e-39
0.57772106 -0.037425663 0.70633221 4.8894064e-39
0.58168483 -0.037308462 0.70626265 4.8894064e-39
0.58504957 -0.036203388 0.70619577 4.8894064e-39
0.50989139 -0.034084588 0.70536053 1.9545109e-38
0.51182675 -0.033689279 0.70521307 1.9453272e-38
0.51731282 -0.034460291 0.70524901 1.9360718e-38
0.5236432 -0.033774406 0.7050615 1.6779603e-38
0.52752453 -0.03237145 0.70511693 1.5212279e-38
0.53224748 -0.0321532 0.70529044 1.5120083e-38
0.53780943 -0.032407396 0.70548755 1.5027888e-38
0.5424946 -0.032622203 0.70563865 1.5120083e-38
0.54720634 -0.032837316 0.70580739 1.5027888e-38
0.55305684 -0.032791324 0.70607197 1.4566918e-38
0.55765116 -0.032532729 0.70624423 9.3136588e-39
0.56259751 -0.031979464 0.70627737 4.9812419e-39
0.56763273 -0.0322119 0.70624942 4.8894064e-39
0.57270783 -0.032445841 0.70622933 4.8894064e-39
0.57781196 -0.032680597 0.70622331 4.8894064e-39
0.58267641 -0.032703534 0.70625103 4.8894064e-39
0.58708435 -0.033104464 0.70624793 4.8894064e-39
0.59085405 -0.031706691 0.70549738 7.7463611e-39
0.52812183 -0.027784389 0.70512629 1.7517168e-38
0.5321309 -0.027565619 0.70544243 1.5212279e-38
0.53765756 -0.027795123 0.70568347 1.5027888e-38
0.54267973 -0.027562018 0.70593125 1.5027888e-38
0.54717326 -0.027629429 0.70607322 1.5120085e-38
0.55261195 -0.027435454 0.70615935 9.8664528e-39
0.55761129 -0.027075851 0.70629388 4.889405e-39
0.56255364 -0.027281646 0.70633113 4.8894064e-39
0.56730443 -0.027767424 0.70625341 5.9953826e-39
0.57265896 -0.027707135 0.70628828 4.8894064e-39
0.57773608 -0.027919039 0.70631415 4.8894064e-39
0.58305651 -0.027821869 0.70635188 4.8894064e-39
0.58799583 -0.027546836 0.7064001 4.889405e-39
0.59191418 -0.026583349 0.70646399 6.9169634e-39
0.59612668 -0.025502317 0.70548046 1.6040598e-38
0.53268325 -0.022847854 0.7052713 1.7793757e-38
0.53760922 -0.022428205 0.70574564 1.5212279e-38
0.54290777 -0.022409417 0.70612073 1.4751305e-38
0.54769301 -0.022021173 0.70642132 9.2210918e-39
0.55246007 -0.02219674 0.70657361 5.0737935e-39
0.55748397 -0.022391574 0.70645195 4.9816034e-39
0.56252557 -0.022585867 0.7063657 4.8894064e-39
0.56752449 -0.022774987 0.70638138 4.8894064e-39
0.57258546 -0.022967197 0.70637709 4.8894064e-39
0.57781702 -0.022712048 0.70639247 4.8894064e-39
0.58257699 -0.022330793 0.70645267 4.8894064e-39
0.58790934 -0.021946186 0.70650172 4.8894064e-39
0.5920288 -0.022094483 0.70657521 4.889405e-39
0.59605253 -0.021920711 0.70654774 7.2857389e-39
0.60051656 -0.020832118 0.70530796 1.6132789e-38
0.53428543 -0.018502083 0.70510679 1.834693e-38
0.53786039 -0.017084943 0.70542145 1.7978151e-38
0.54314476 -0.017244749 0.70604241 9.2214463e-39
0.54770547 -0.017388189 0.70640564 5.0734347e-39
0.55249119 -0.017546492 0.70653433 4.8890449e-39
0.55739212 -0.017712032 0.70656604 4.8894078e-39
0.56248885 -0.017889956 0.70641094 4.8894064e-39
0.56750017 -0.018060066 0.70641106 4.8894064e-39
0.57253855 -0.017441584 0.70643371 4.8894064e-39
0.5774951 -0.017266871 0.70642751 4.8894064e-39
0.5827198 -0.016982595 0.70650601 4.889405e-39
0.58783525 -0.017146988 0.7065888 4.889405e-39
0.59197068 -0.017280227 0.70664304 4.889405e-39
0.5974586 -0.017466612 0.70639104 1.051184e-38
0.60298795 -0.016587244 0.70573646 2.000645e-38
0.53921217 -0.013552911 0.70532435 1.0696579e-38
0.54244298 -0.01261614 0.70570445 4.7050081e-39
0.54683208 -0.012731563 0.70628136 4.7050109e-39
0.55256152 -0.012898683 0.70644653 4.8890477e-39
0.5574584 -0.013044186 0.70648366 4.8890463e-39
0.56243861 -0.012411683 0.70647287 4.8894064e-39
0.5674746 -0.01256004 0.7064423 4.8894064e-39
0.57255262 -0.011920549 0.70641685 4.8894064e-39
0.57773703 -0.012071692 0.70631313 4.9812433e-39
0.58285022 -0.012216986 0.70635134 4.889405e-39
0.58792126 -0.012358497 0.70648772 4.889405e-39
0.59205621 -0.012475376 0.70654321 7.4704959e-39
0.59653711 -0.012612167 0.70623112 1.8623533e-38
0.60246247 -0.01280046 0.7055248 2.0190477e-38
0.60710859 -0.014569893 0.70510948 2.0190479e-38
0.54320085 -0.0084131313 0.70535266 4.2436572e-39
0.54703492 -0.0073397644 0.70602411 4.5206127e-39
0.55246454 -0.0074647018 0.70656782 4.8890463e-39
0.55741018 -0.0075904466 0.70654362 4.9812433e-39
0.56240278 -0.0069352691 0.70651692 4.8894064e-39
0.56749105 -0.0070626568 0.70642215 4.8894078e-39
0.57263976 -0.00719199 0.70631152 4.9812433e-39
0.57783264 -0.0073224753 0.70619869 4.9812433e-39
0.58242095 -0.0076641464 0.70615959 4.889405e-39
0.58735347 -0.0073566725 0.70623821 7.562323e-39
0.59230405 -0.0076775323 0.70625395 1.8255107e-38
0.59760523 -0.0078090066 0.70622128 2.0006086e-38
0.60346848 -0.0079679759 0.70559412 2.0004987e-38
0.60709333 -0.0080679785 0.70512682 2.019047e-38
0.61249441 -0.0065683192 0.70512855 1.9268514e-38
0.61760771 -0.005859341 0.70550609 1.9729863e-38
0.62177646 -0.005126968 0.70575279 1.982206e-38
0.54857379 -0.0022848602 0.70555389 4.151456e-39
0.55250961 -0.002038846 0.70651096 4.7046494e-39
0.55728453 -0.0021339471 0.70669967 4.9812433e-39
0.56233543 -0.0022400459 0.70659989 4.9812433e-39
0.56754881 -0.0023523571 0.70635176 4.9812433e-39
0.57274687 -0.0024628288 0.70618224 4.9812433e-39
0.57793403 -0.0025718885 0.70607728 4.9812419e-39
0.58211911 -0.0026598948 0.70599174 6.0872125e-39
0.5873192 -0.0027674886 0.70597243 1.3553143e-38
0.59285587 -0.0026730807 0.70621544 1.7148027e-38
0.59776378 -0.0029817419 0.7060374 1.9176324e-38
0.60320646 -0.0030971088 0.70589441 2.0097916e-38
0.60790437 -0.0032031566 0.70543003 1.9729131e-38
0.61267781 -0.002386004 0.70587498 1.9268517e-38
0.61727035 -0.0023576554 0.70618993 1.9637303e-38
0.62227708 -0.0018370142 0.70642155 1.9729862e-38
0.55327278 0.0023976502 0.70586175 4.1510973e-39
0.55722612 0.0025393525 0.70677209 4.7968464e-39
0.56234211 0.0024513686 0.70659167 4.9816034e-39
0.56757683 0.0023600056 0.70631766 4.9816034e-39
0.57284069 0.0022685784 0.70606887 4.9812433e-39
0.57805055 0.002179875 0.70593786 6.7325721e-39
0.58222705 0.0021092081 0.70586348 1.3829726e-38
0.58748221 0.0020204652 0.70578074 1.521228e-38
0.59278417 0.0019309014 0.70569366 1.5212279e-38
0.59699631 0.0018609026 0.70569879 1.6134234e-38
0.60237014 0.0020982812 0.70587504 1.9176329e-38
0.60733098 0.0025067017 0.70608217 1.9176687e-38
0.61197698 0.002930765 0.70669335 1.9268522e-38
0.61716479 0.0031844543 0.70722365 1.9452551e-38
0.62170714 0.0031130922 0.70705432 1.9268158e-38
0.55776203 0.0066718454 0.70569712 3.8741404e-39
0.56252581 0.0071382588 0.70636559 4.9812419e-39
0.56770301 0.00707039 0.70616388 4.9812419e-39
0.57189345 0.0070152325 0.70598483 5.4425718e-39
0.57712638 0.0069470308 0.70581967 1.2723755e-38
0.58232635 0.006880363 0.70574546 1.521228e-38
0.58779633 0.0071304562 0.70565617 1.5304475e-38
0.59289807 0.0075474475 0.7055608 1.5212279e-38
0.59704983 0.0074984701 0.7056368 1.5120083e-38
0.60199189 0.0076624961 0.70584148 1.5765453e-38
0.60732156 0.0081926892 0.70609301 1.8162533e-38
0.61213267 0.0081453761 0.70676219 1.8900097e-38
0.61760771 0.0078879222 0.70764607 1.8900103e-38
0.62072515 0.0096909152 0.70692098 1.8438766e-38
0.56336421 0.011297468 0.70574278 7.1009553e-39
0.56753188 0.012882262 0.70563656 8.4839093e-39
0.57226562 0.012529852 0.7055344 1.4567659e-38
0.57735103 0.012489255 0.70555001 1.5120083e-38
0.58246934 0.012448484 0.70557553 1.5212279e-38
0.58751869 0.012626079 0.70551449 1.5304475e-38
0.5930149 0.013166121 0.70542431 1.5212279e-38
0.5971449 0.013136649 0.70552659 1.4935692e-38
0.60223264 0.01310112 0.70578778 1.5027888e-38
0.60737503 0.01306507 0.70603222 1.5304475e-38
0.61235762 0.013032096 0.70650876 1.7148386e-38
0.61733097 0.012670321 0.70679367 1.6963996e-38
0.62127793 0.01295922 0.70549148 1.834693e-38
0.56878489 0.017015625 0.70525473 1.9545835e-38
0.57251197 0.017262705 0.70523614 1.9637669e-38
0.57787871 0.017836623 0.70522428 1.6318626e-38
0.58273596 0.018018492 0.70525861 1.5027888e-38
0.58762091 0.017802043 0.70531005 1.5120083e-38
0.59270614 0.018214056 0.70526022 1.5212279e-38
0.59742492 0.01796931 0.70520234 1.5120083e-38
0.6026541 0.017803147 0.70557326 1.4473994e-38
0.60777849 0.017936319 0.70557338 1.5120083e-38
0.61218733 0.017105374 0.70547545 1.456691e-38
0.61654198 0.016268969 0.70547533 1.5120083e-38
0.5890311 0.022000507 0.70518279 1.4843496e-38
0.59177607 0.02248076 0.70515603 1.5120083e-38
0.59790772 0.021731481 0.7050519 1.5304475e-38
0.60335749 0.021595454 0.70510995 1.5027888e-38
0.60701501 0.021187451 0.70521617 1.5488866e-38
0.59182376 0.027617998 0.70518142 1.4843496e-38
0.59319401 0.032443348 0.70521516 1.5949844e-38
0.59651244 0.03408486 0.70503265 1.5765453e-38
0.59412295 0.035665706 0.70535785 1.7885952e-38
0.59641403 0.035693858 0.70514691 1.8900103e-38
0.46646041 0.1916365 0.70732772 3.8740676e-39
0.45786342 0.19893073 0.70646793 4.7847728e-39
0.46208498 0.19827962 0.70637405 5.796757e-39
0.46724442 0.19884716 0.70618719 6.2570106e-39
0.45338571 0.2030804 0.70644736 4.6007431e-39
0.45658389 0.20197074 0.70841402 4.9688026e-39
0.46263725 0.20073101 0.7085582 6.1648164e-39
0.46752247 0.20144431 0.70828128 6.1648164e-39
0.4721697 0.20231268 0.7076692 6.5346821e-39
0.47564286 0.20382342 0.70632851 7.6442863e-39
0.44912171 0.20832656 0.70643252 4.2323249e-39
0.45197794 0.20697795 0.70820135 4.9684438e-39
0.45504361 0.20555729 0.70950294 5.0606381e-39
0.4731122 0.20631814 0.70920038 6.8090998e-39
0.47714359 0.20850635 0.70764291 6.5343206e-39
0.44476289 0.2143375 0.70521182 3.77243e-39
0.44760722 0.21240008 0.70773166 4.3245192e-39
0.45026642 0.2104138 0.70928639 4.6925786e-39
0.44344684 0.21791348 0.70681781 4.3245192e-39
0.44601184 0.21691841 0.70895165 4.7844141e-39
0.4773027 0.21817859 0.70890635 6.7169056e-39
0.43907595 0.22343104 0.70657378 4.1404894e-39
0.44177753 0.2219936 0.70834601 4.7844141e-39
0.44501054 0.22060996 0.70988148 5.2446678e-39
0.47351944 0.22317487 0.70943391 6.6247114e-39
0.47573194 0.22154491 0.7086978 6.4410404e-39
0.43456864 0.22905935 0.70614308 3.77243e-39
0.4371469 0.22709285 0.7077384 4.5081902e-39
0.44041103 0.2253976 0.70952582 5.1524736e-39
0.47091234 0.22699048 0.70951796 6.5328759e-39
0.43358639 0.2326099 0.70674235 4.4163547e-39
0.43604946 0.23157072 0.70921504 4.8766083e-39
0.46912467 0.2325992 0.70840657 6.4410404e-39
0.43312821 0.23762462 0.70718551 4.3245192e-39
0.43546993 0.23621887 0.70977682 4.4167134e-39
0.4331378 0.24230452 0.70751607 4.2323249e-39
0.43599892 0.24351825 0.70977765 5.2446678e-39
0.46304789 0.24279362 0.70869237 6.4410404e-39
0.43360543 0.24553084 0.70641816 4.3245192e-39
0.43735087 0.24732985 0.70783728 4.3245192e-39
0.44060433 0.24926548 0.7092213 3.9564597e-39
0.45856267 0.24938898 0.70666456 6.2570106e-39
0.4606061 0.24850804 0.70608711 6.2570106e-39
0.44266677 0.25151476 0.70723993 4.2326837e-39
0.44775495 0.25310928 0.70762801 4.6007431e-39
0.45222902 0.25186536 0.70878744 6.0729809e-39
0.4565292 0.25026566 0.70723933 6.2570106e-39
0.53339773 -0.33516854 0.71362031 3.043993e-39
0.52892572 -0.33119366 0.71207124 3.043993e-39
0.5311588 -0.33317843 0.71284485 3.043993e-39
0.52399415 -0.32540071 0.71116805 1.3840667e-39
0.52645314 -0.32793856 0.71284622 2.5830022e-39
0.52318263 -0.32233906 0.71223223 2.1220129e-39
0.52351391 -0.31758243 0.71319669 2.8621129e-39
0.52389812 -0.31255984 0.71234334 2.7878833e-39
0.52454054 -0.3079139 0.71262681 2.7875246e-39
0.52516723 -0.3059943 0.71452355 2.7904e-39
0.52475995 -0.30406871 0.71097922 2.7810576e-39
0.5255301 -0.3020356 0.71282768 2.7896812e-39
0.5266605 -0.29744762 0.71257383 2.7878833e-39
0.52801251 -0.29218853 0.71244341 2.789321e-39
0.52918613 -0.28781852 0.71264976 2.7889623e-39
0.52978414 -0.28481418 0.71095687 3.4339646e-39
0.53057092 -0.28258026 0.71265358 3.0662638e-39
0.53174347 -0.27751577 0.71269917 2.9744298e-39
0.53262836 -0.27290297 0.71243924 3.0662652e-39
0.53371245 -0.2674289 0.71260393 2.9744298e-39
0.53455424 -0.26277232 0.71240336 3.0662652e-39
0.53531754 -0.2574499 0.71254861 2.9744298e-39
0.53594464 -0.25216511 0.71224713 3.3421305e-39
0.53653818 -0.24778013 0.71264082 3.3421305e-39
0.53718144 -0.24266399 0.71260369 3.0662652e-39
0.53779274 -0.23734999 0.71232516 3.8016667e-39
0.53838235 -0.23259708 0.71260369 3.9856964e-39
0.53898352 -0.22739893 0.71257085 3.1581007e-39
0.53943294 -0.22263087 0.71182376 4.9051262e-39
0.5400086 -0.22105007 0.71492296 2.7904e-39
0.53987169 -0.21808943 0.71119481 4.5305983e-39
0.54028356 -0.21734539 0.71321708 2.789321e-39
0.54074162 -0.21246547 0.71277541 2.788242e-39
0.54130638 -0.20736521 0.71205854 2.7832128e-39
0.5419777 -0.20233877 0.71266997 2.7832128e-39
0.54254681 -0.19750881 0.71292663 2.7857267e-39
0.54300743 -0.1926998 0.71216995 2.7799786e-39
0.54364061 -0.18741086 0.71276289 2.7828526e-39
0.54447097 -0.18350685 0.71334124 2.782854e-39
0.54530603 -0.18210867 0.71188343 2.8678624e-39
0.54696912 -0.17743346 0.71205741 2.7749493e-39
0.54850012 -0.17283599 0.71222812 2.7745892e-39
0.54954118 -0.16809629 0.71104234 2.8606765e-39
0.5505659 -0.16639614 0.71285188 2.7763856e-39
0.55151635 -0.16226542 0.71264249 2.7756668e-39
0.55374306 -0.15919104 0.71231395 2.7738703e-39
0.55777973 -0.15761684 0.7128107 3.4131483e-39
0.56245285 -0.15657893 0.71286809 3.5979053e-39
0.56696022 -0.15666291 0.71438402 3.5979053e-39
0.56155074 -0.15490089 0.71000981 3.5979053e-39
0.54742718 -0.036024094 0.71184123 1.2631565e-38
0.56270272 -0.020217102 0.71122843 1.0142673e-38
0.53219682 -0.018007319 0.71176392 5.2581847e-39
0.45877686 0.2036017 0.71094054 5.520533e-39
0.4623377 0.20331435 0.71100706 6.1648164e-39
0.46754369 0.20393051 0.71074742 5.9807867e-39
0.45390582 0.20836493 0.7106111 5.0606381e-39
0.45748371 0.20769246 0.71206069 5.796757e-39
0.46295655 0.20729689 0.71280152 6.3488461e-39
0.46746129 0.20787318 0.71285909 6.4406816e-39
0.47196749 0.20848049 0.71170384 6.4410404e-39
0.44948918 0.21359921 0.71048415 4.8766083e-39
0.45273864 0.21255882 0.71176761 5.6127272e-39
0.45724812 0.21266921 0.71341306 5.9807867e-39
0.46209681 0.21246974 0.71385604 6.3488461e-39
0.46734032 0.21241729 0.71378267 6.5328759e-39
0.47193262 0.21265377 0.7128197 6.6250701e-39
0.475981 0.21256416 0.71082497 6.5328759e-39
0.44842446 0.21794978 0.71121401 5.1524736e-39
0.45216054 0.21751721 0.71293795 5.7049215e-39
0.4575741 0.2175322 0.7144165 6.2570106e-39
0.46245706 0.21685779 0.71456164 6.4410404e-39
0.46726283 0.21771164 0.71364874 6.6250701e-39
0.47304121 0.21771258 0.71137923 6.7169056e-39
0.44385099 0.22333245 0.71068364 5.2446678e-39
0.44743606 0.22263369 0.71214885 5.7045627e-39
0.45235467 0.22242315 0.71385103 5.8885925e-39
0.45717171 0.22246444 0.71466744 6.3488461e-39
0.46273246 0.22248875 0.71415061 6.6250701e-39
0.46723884 0.22241618 0.71297485 6.6247114e-39
0.47135589 0.22251116 0.71094304 6.6247114e-39
0.43924126 0.22870988 0.71053004 5.1524736e-39
0.44261006 0.22760737 0.71174371 5.6127272e-39
0.44769338 0.22719678 0.71302646 5.9807867e-39
0.45222977 0.22738877 0.71417654 6.0729809e-39
0.45706648 0.22757091 0.71448851 6.4410404e-39
0.46168438 0.22746168 0.71392047 6.6247114e-39
0.46701306 0.2276119 0.71153182 6.6247114e-39
0.43832159 0.2327916 0.71121883 5.2446678e-39
0.44229513 0.23265284 0.71311378 5.8885925e-39
0.44736484 0.23228867 0.71375972 6.2566519e-39
0.45184621 0.23269291 0.71412826 6.3488461e-39
0.45677006 0.23248647 0.71415669 6.4410404e-39
0.46186706 0.23249002 0.71295571 6.7169056e-39
0.4663175 0.23235121 0.71069193 6.7169056e-39
0.43763921 0.23779552 0.71194202 5.1524736e-39
0.44244552 0.23756295 0.71388084 6.0726222e-39
0.44706014 0.23759684 0.71400213 6.3488461e-39
0.45201999 0.2375249 0.71433902 6.4410404e-39
0.45738369 0.23755488 0.71370834 6.6250701e-39
0.46259794 0.23701191 0.7116152 6.6247114e-39
0.4378086 0.24224274 0.71136665 4.9688026e-39
0.44213519 0.24252823 0.71340185 5.796757e-39
0.44743395 0.24250984 0.71390349 6.2570106e-39
0.45225301 0.24242115 0.71375835 6.3488461e-39
0.45679811 0.24208188 0.71309513 6.5328759e-39
0.46048307 0.24176995 0.7112875 6.5328759e-39
0.43974721 0.24601631 0.71057212 5.2446678e-39
0.44265023 0.24750763 0.71147078 5.1528323e-39
0.44753075 0.24726173 0.71267086 6.0729809e-39
0.45174253 0.24702978 0.71245527 6.3488461e-39
0.45600358 0.24570508 0.71180099 6.3488461e-39
0.44763193 0.25045905 0.71084261 5.2446678e-39
0.53685451 -0.33657435 0.71770883 3.043993e-39
0.53247374 -0.33251411 0.71654564 2.9517974e-39
0.53521746 -0.33429074 0.71857899 3.043993e-39
0.52757096 -0.32729906 0.71626925 3.043993e-39
0.5306294 -0.32954305 0.71959972 2.8599577e-39
0.52399516 -0.32215866 0.7172668 2.2142127e-39
0.52420664 -0.31715232 0.71729428 2.8624716e-39
0.52468807 -0.31304219 0.71688432 2.7875246e-39
0.52518916 -0.31123036 0.71874696 2.7904e-39
0.52555543 -0.30750886 0.71766609 2.7904e-39
0.52618021 -0.30245972 0.71725965 2.7904e-39
0.52726156 -0.29769915 0.71747696 2.7904e-39
0.52861911 -0.29255706 0.71782517 2.7904e-39
0.52966207 -0.28809515 0.71696699 2.7904e-39
0.5303151 -0.28580564 0.71758032 2.7904e-39
0.53111964 -0.28271013 0.71776062 2.7904e-39
0.53216797 -0.27774107 0.71762681 2.7904e-39
0.53663993 -0.27806839 0.71516919 2.9521589e-39
0.53313631 -0.27271321 0.7176007 2.7904e-39
0.53411835 -0.26768482 0.71755636 2.7904e-39
0.5347746 -0.26432708 0.71752834 2.7904e-39
0.5352478 -0.26160946 0.71757138 2.7904e-39
0.53579551 -0.2570605 0.71730351 2.7904e-39
0.53637242 -0.25268772 0.71771443 2.7904e-39
0.53700304 -0.24759139 0.71769267 2.7904e-39
0.5376085 -0.24231906 0.71705353 2.7904e-39
0.5382672 -0.23762287 0.71793449 2.7904e-39
0.5388698 -0.23243517 0.71757627 2.7904e-39
0.53947413 -0.22723953 0.71721524 2.7904e-39
0.53983599 -0.22334705 0.71595025 2.7904e-39
0.54024118 -0.22213046 0.71866727 2.7904e-39
0.54070634 -0.21761012 0.71767855 2.7904e-39
0.5413177 -0.21239634 0.71731126 2.7904e-39
0.54192126 -0.20752315 0.71759957 2.7904e-39
0.5424397 -0.20269346 0.71791762 2.7904e-39
0.53915477 -0.19629696 0.71918154 1.115531e-38
0.54291171 -0.19755787 0.71732497 2.7904e-39
0.54353958 -0.19226573 0.71774578 2.7904e-39
0.54396069 -0.18799719 0.71752071 2.7904e-39
0.54452795 -0.18283227 0.71789181 2.7904e-39
0.54501688 -0.18063019 0.71589696 2.7904e-39
0.54584688 -0.17742716 0.71768206 2.7900399e-39
0.54756469 -0.17292166 0.71707487 2.7900399e-39
0.54884166 -0.16825902 0.71758217 2.7889623e-39
0.55029964 -0.16609475 0.71658248 2.789321e-39
0.54978549 -0.16248538 0.71963328 2.7871658e-39
0.55217963 -0.1613384 0.71788448 2.771355e-39
0.55545306 -0.15909249 0.71748203 3.0447161e-39
0.56093943 -0.1586712 0.71562034 3.5979053e-39
0.5669015 -0.15750961 0.7156682 3.5979053e-39
0.53827953 -0.33689258 0.72073853 2.8599577e-39
0.53317606 -0.33178902 0.72237945 2.8599577e-39
0.52819258 -0.32688329 0.72271925 2.8599577e-39
0.52424151 -0.32159957 0.72298771 1.9372559e-39
0.52582145 -0.32466197 0.72095162 2.8599577e-39
0.52462018 -0.31778032 0.72223198 2.8606751e-39
0.52505887 -0.31599295 0.7243396 2.8610353e-39
0.52540904 -0.31245723 0.72285855 2.7875246e-39
0.52604789 -0.30736315 0.72216439 2.7904e-39
0.52679724 -0.30279052 0.72258449 2.7904e-39
0.52804011 -0.29719588 0.72243321 2.7904e-39
0.52920097 -0.29260668 0.72280329 2.7904e-39
0.5298757 -0.28923467 0.72136778 2.7904e-39
0.53063905 -0.28692409 0.72289848 2.7904e-39
0.53181052 -0.28199089 0.72237456 2.7904e-39
0.53278565 -0.2773647 0.72287226 2.7904e-39
0.53374797 -0.27198252 0.72231764 2.7904e-39
0.53462625 -0.26765174 0.72277051 2.7904e-39
0.53519595 -0.26505965 0.7234233 2.7904e-39
0.53561366 -0.2621561 0.7225939 2.7904e-39
0.53615868 -0.25781366 0.72247338 2.7904e-39
0.53683889 -0.25248322 0.72272247 2.7904e-39
0.53743887 -0.24723709 0.72209466 2.7904e-39
0.538091 -0.24254385 0.72265536 2.7904e-39
0.53873676 -0.23741961 0.72256571 2.7904e-39
0.53940129 -0.23229758 0.72245139 2.7904e-39
0.53971046 -0.2283861 0.72094244 2.7904e-39
0.54022038 -0.22721569 0.72350603 2.7904e-39
0.54070491 -0.22233021 0.72232908 2.7904e-39
0.54703599 -0.22125387 0.72427285 3.9667004e-39
0.54145837 -0.21707872 0.72275794 2.7904e-39
0.54199731 -0.21259974 0.72238529 2.7904e-39
0.54263359 -0.20756428 0.72232151 2.7904e-39
0.54329956 -0.2022613 0.72286242 2.7904e-39
0.54370165 -0.19756967 0.72236222 2.7904e-39
0.54418099 -0.19291058 0.72236699 2.7904e-39
0.54471391 -0.18753298 0.72247666 2.7904e-39
0.54486054 -0.18358375 0.72092271 2.7904e-39
0.54528385 -0.18201172 0.72319669 2.7904e-39
0.54566413 -0.17795277 0.72259223 2.7904e-39
0.54690343 -0.17243505 0.72259134 2.7904e-39
0.54817545 -0.16753164 0.72268617 2.7907602e-39
0.54914421 -0.16406058 0.72202641 2.9769535e-39
0.55192083 -0.16243806 0.72325367 2.97552e-39
0.55520117 -0.1610214 0.7249946 3.0702309e-39
0.55450845 -0.15978414 0.72224855 2.9650943e-39
0.55763644 -0.15817936 0.72306842 2.866789e-39
0.56159014 -0.15595557 0.72445017 2.8599577e-39
0.52656311 -0.32538801 0.72958243 1.2918683e-39
0.52472824 -0.32177907 0.7263605 1.2918697e-39
0.52606755 -0.32242042 0.72902322 1.5688237e-39
0.52489942 -0.31893674 0.72693849 2.6752007e-39
0.52565938 -0.31759709 0.72835171 2.8603164e-39
0.52584064 -0.31254134 0.72752398 2.786447e-39
0.5264731 -0.30783352 0.72731251 2.7904e-39
0.52757096 -0.30226934 0.72750491 2.7904e-39
0.52870464 -0.29758123 0.72765374 2.7904e-39
0.52962327 -0.29309231 0.7266469 2.7904e-39
0.53020847 -0.29163074 0.72828841 2.7904e-39
0.53112006 -0.2874333 0.72777283 2.7904e-39
0.53220367 -0.28265169 0.72746342 2.7904e-39
0.53328931 -0.277264 0.72761846 2.7904e-39
0.53412932 -0.27268016 0.72742218 2.7904e-39
0.53479171 -0.26924348 0.7275176 2.7904e-39
0.53530151 -0.26658538 0.72767168 2.7904e-39
0.53595042 -0.26261303 0.72751993 2.7904e-39
0.53672463 -0.25735953 0.72764874 2.7904e-39
0.53738827 -0.25215548 0.72730982 2.7904e-39
0.53804064 -0.24750271 0.72750139 2.7904e-39
0.53824317 -0.24232073 0.72708148 2.7896812e-39
0.53939158 -0.23747683 0.72750682 2.7904e-39
0.53969443 -0.23385602 0.7261557 2.7904e-39
0.54019648 -0.23225905 0.72831076 2.7904e-39
0.54068553 -0.22740304 0.72713691 2.7904e-39
0.54144043 -0.22237922 0.72777629 2.7904e-39
0.54202896 -0.21769376 0.72751176 2.7904e-39
0.54269367 -0.21238621 0.72719997 2.7904e-39
0.5433954 -0.20743227 0.72775942 2.7904e-39
0.54394209 -0.20296045 0.72752768 2.7904e-39
0.54447204 -0.19757469 0.72738492 2.7904e-39
0.54480708 -0.19275512 0.72673374 2.7904e-39
0.54525393 -0.19109546 0.72919601 2.7904e-39
0.54493475 -0.18963717 0.72562301 2.7904e-39
0.54536408 -0.18737501 0.72747487 2.7904e-39
0.54579949 -0.18269627 0.72773337 2.7904e-39
0.54624718 -0.17741053 0.72758061 2.7904e-39
0.54751277 -0.17210056 0.72764951 2.7914804e-39
0.54887933 -0.16812263 0.726735 2.9773136e-39
0.55118829 -0.16730563 0.72816557 3.0702309e-39
0.55333877 -0.16410422 0.72665846 3.0702309e-39
0.55639631 -0.16146475 0.72672653 3.0702309e-39
0.55835015 -0.15907705 0.72595942 3.0691519e-39
0.56190455 -0.15631431 0.72764468 3.2352198e-39
0.5652414 -0.15577799 0.72960919 3.32131e-39
0.53035921 -0.33116055 0.73426288 2.9521561e-39
0.52802253 -0.32677466 0.73277158 1.2918683e-39
0.52764547 -0.32239646 0.73227638 2.1216514e-39
0.5271917 -0.31728968 0.73183584 2.8624716e-39
0.52673686 -0.31293657 0.7317341 2.7871658e-39
0.52712083 -0.3076584 0.73243284 2.7903986e-39
0.52809721 -0.3027001 0.73259598 2.7896798e-39
0.52932048 -0.29728708 0.73261404 2.7896798e-39
0.52984953 -0.29460755 0.7313565 2.7903986e-39
0.53048271 -0.29213837 0.73292637 2.7900385e-39
0.53149885 -0.28746626 0.73257035 2.7896798e-39
0.53261036 -0.28237131 0.73262423 2.7900385e-39
0.53359514 -0.27742517 0.73257405 2.7889623e-39
0.53453082 -0.2724393 0.7325902 2.7900385e-39
0.53539157 -0.26728868 0.73240304 2.789321e-39
0.53601027 -0.26258865 0.73294294 2.7896798e-39
0.5367642 -0.25778499 0.73234433 2.7900399e-39
0.53757411 -0.25283396 0.73261386 2.789321e-39
0.54602754 -0.25000277 0.73269135 2.8599577e-39
0.53842747 -0.24763055 0.73264593 2.7900399e-39
0.53924179 -0.24223174 0.73186356 2.7900399e-39
0.53986746 -0.23844726 0.73306006 2.7900399e-39
0.54025906 -0.23605442 0.73297113 2.7900399e-39
0.54064459 -0.23242541 0.73193371 2.7903986e-39
0.54133546 -0.22739337 0.73264617 2.7900399e-39
0.54197663 -0.22243901 0.73282498 2.7900399e-39
0.5425424 -0.21743064 0.73213029 2.7903986e-39
0.54319805 -0.21222387 0.73250496 2.7900399e-39
0.54380256 -0.20734532 0.73277754 2.7900399e-39
0.54436958 -0.20235752 0.7324208 2.7903986e-39
0.54482251 -0.19796591 0.73146164 2.7903986e-39
0.54517555 -0.19626634 0.73401886 2.7900399e-39
0.54541886 -0.19291273 0.73241162 2.7900399e-39
0.54596168 -0.18750098 0.73283654 2.7903986e-39
0.54632944 -0.18271148 0.7322197 2.7903986e-39
0.54687828 -0.17726575 0.73251569 2.7903986e-39
0.54830623 -0.17241848 0.73256737 2.7911217e-39
0.54946673 -0.16950071 0.73312664 2.7904e-39
0.55091399 -0.16635194 0.73349828 2.7904e-39
0.5528329 -0.16237716 0.73377746 2.9762332e-39
0.55405587 -0.1595806 0.73348635 3.1581148e-39
0.55687195 -0.15834692 0.73247254 3.2337849e-39
0.56252784 -0.15741935 0.73234546 3.32131e-39
0.56753784 -0.15662362 0.73230332 3.32131e-39
0.57150042 -0.15627053 0.73288941 3.32131e-39
0.53712136 -0.33529389 0.73761851 2.9521561e-39
0.53247696 -0.33161992 0.73750162 2.9521561e-39
0.53745937 -0.33483022 0.73954231 2.9521561e-39
0.52808052 -0.32739615 0.73789924 1.8450575e-39
0.52768087 -0.32229874 0.73761642 2.2142113e-39
0.5277195 -0.31774586 0.7378028 2.8603164e-39
0.52784616 -0.31268299 0.73719668 2.7745892e-39
0.52824873 -0.30773205 0.7371403 2.7756668e-39
0.52888089 -0.30220965 0.7376796 2.8649869e-39
0.52955353 -0.29781115 0.73761964 2.7745892e-39
0.53005403 -0.29552186 0.73934007 2.8599577e-39
0.53062904 -0.29247886 0.73745227 2.7735116e-39
0.53167123 -0.28771943 0.7376194 2.7735116e-39
0.53281069 -0.2824375 0.73747486 2.7731528e-39
0.53385019 -0.27755642 0.73755366 2.7727927e-39
0.53469712 -0.27287194 0.73709202 2.7742304e-39
0.53501755 -0.27053368 0.73786908 2.8603178e-39
0.53533536 -0.26784939 0.73776704 2.7731514e-39
0.53595662 -0.26258114 0.73788059 2.8642695e-39
0.53673035 -0.25739336 0.73675925 2.7774632e-39
0.53751296 -0.25243527 0.73830664 2.8631919e-39
0.53839624 -0.2472804 0.73705441 2.7767444e-39
0.53926849 -0.24231881 0.73758286 2.7749479e-39
0.53987437 -0.23893531 0.73775268 2.8657058e-39
0.54030257 -0.23650393 0.73699421 2.7771045e-39
0.54106098 -0.23208444 0.73747158 2.7756668e-39
0.54170412 -0.22735603 0.73785877 2.8657058e-39
0.54226035 -0.22237189 0.73718059 2.7778234e-39
0.54291469 -0.21719016 0.73755294 2.7778234e-39
0.54348743 -0.21264446 0.73744273 2.7781821e-39
0.54410094 -0.20738162 0.7374503 2.7785422e-39
0.54465884 -0.20274158 0.73748267 2.7796198e-39
0.54509622 -0.20075172 0.73958439 2.8599577e-39
0.54491591 -0.1993881 0.73590207 2.7871658e-39
0.5453164 -0.1973034 0.7381494 2.7763856e-39
0.54581076 -0.19264576 0.73771816 2.7792597e-39
0.54637575 -0.18734424 0.73715925 2.782854e-39
0.54690093 -0.18245465 0.73761457 2.7803387e-39
0.54798782 -0.17757903 0.73765159 2.8736147e-39
0.54905796 -0.17389166 0.73675275 2.7868085e-39
0.55106097 -0.17196305 0.73837692 3.0583717e-39
0.55269152 -0.16739316 0.73715425 3.0659177e-39
0.55566347 -0.16552497 0.73937851 3.1520065e-39
0.55441082 -0.16267702 0.73599768 3.1617077e-39
0.55668437 -0.16200137 0.73816866 3.1588322e-39
0.55776441 -0.1588484 0.73727864 3.1588336e-39
0.56067383 -0.15743373 0.73968375 3.1548806e-39
0.57064712 -0.15736876 0.73505485 3.32131e-39
0.52822596 -0.32627764 0.74254328 2.2142113e-39
0.53139371 -0.32979375 0.74001336 2.9521561e-39
0.53679401 -0.32518935 0.74254149 4.5202511e-39
0.52817708 -0.32268777 0.7425462 1.937616e-39
0.5285778 -0.31752142 0.74217397 2.8599577e-39
0.52912778 -0.31250477 0.74303097 2.8599577e-39
0.52940583 -0.30755141 0.74224222 2.8599577e-39
0.52968925 -0.30320337 0.74179184 2.8599577e-39
0.53014964 -0.30171508 0.74388021 2.8599577e-39
0.53044951 -0.29715684 0.74263728 2.8599577e-39
0.53133816 -0.29259607 0.7426222 2.8599577e-39
0.53234231 -0.28738829 0.74233526 2.8599577e-39
0.53332692 -0.28258014 0.74251741 2.8599577e-39
0.53423274 -0.27739102 0.74233526 2.8599577e-39
0.5347892 -0.27291784 0.74203831 2.8599577e-39
0.53509778 -0.27103901 0.74398398 2.8599577e-39
0.53538156 -0.26779023 0.74266899 2.8599577e-39
0.53596699 -0.26260799 0.74269974 2.8599577e-39
0.53670299 -0.25726062 0.7423299 2.8599577e-39
0.53753686 -0.25251323 0.74310499 2.8599577e-39
0.53845268 -0.24722859 0.74220961 2.8599577e-39
0.53927594 -0.24271452 0.74285311 2.8599577e-39
0.5398618 -0.23940912 0.74243236 2.8599577e-39
0.54034853 -0.23666926 0.74184114 2.8599577e-39
0.54108787 -0.23268315 0.74297619 2.8599577e-39
0.54192436 -0.22759703 0.74208879 2.8599577e-39
0.54262394 -0.22240672 0.74256891 2.8599577e-39
0.54326302 -0.21761683 0.74237853 2.8599577e-39
0.54409522 -0.21215682 0.74253607 2.8599577e-39
0.54464847 -0.20759237 0.74157846 2.8599577e-39
0.54510897 -0.20662522 0.74421668 2.8599577e-39
0.54546171 -0.20250699 0.74263364 2.8599577e-39
0.54606342 -0.19717249 0.74278045 2.8599577e-39
0.54647779 -0.19247571 0.74236208 2.8599577e-39
0.5470134 -0.18761164 0.74244702 2.8599577e-39
0.54791844 -0.18224421 0.74265319 2.8599577e-39
0.54901075 -0.17804992 0.74273378 2.8599591e-39
0.55030519 -0.17604382 0.74031794 3.2287514e-39
0.55260623 -0.17245875 0.74164724 2.8603192e-39
0.55426979 -0.16919135 0.74025416 3.2337821e-39
0.55620331 -0.16725129 0.74184197 2.8606765e-39
0.55861467 -0.16310695 0.74184191 2.8631933e-39
0.56061959 -0.16114408 0.74361569 2.8599577e-39
0.56209016 -0.15783933 0.74267364 2.8631905e-39
0.53864676 -0.33663541 0.74967599 2.8599577e-39
0.53324395 -0.33165947 0.7481755 2.8599577e-39
0.52914256 -0.32616168 0.74743438 2.3989683e-39
0.53085119 -0.3288466 0.74764061 2.8599577e-39
0.56759524 -0.32720116 0.74900377 5.0737949e-39
0.5288884 -0.32231805 0.74774516 1.568465e-39
0.52929294 -0.31744608 0.74724787 2.8599577e-39
0.52978599 -0.31303236 0.7477963 2.8599577e-39
0.53010505 -0.31071138 0.74855757 2.8599577e-39
0.57414037 -0.31148857 0.74959457 5.0737836e-39
0.52991253 -0.30976349 0.7464878 2.8599577e-39
0.53026593 -0.30710077 0.74737179 2.8599577e-39
0.53075802 -0.30253938 0.74798554 2.8599577e-39
0.57684368 -0.30329382 0.74884325 4.7971897e-39
0.53134871 -0.29767042 0.74724144 2.8599577e-39
0.53976166 -0.29693994 0.74915725 2.7810576e-39
0.53237283 -0.29206115 0.7472195 2.8599577e-39
0.53313065 -0.28756386 0.74761909 2.8599577e-39
0.53389639 -0.28229716 0.74721289 2.8599577e-39
0.5346089 -0.2774522 0.74740511 2.8599577e-39
0.53501952 -0.27507979 0.74946529 2.8599577e-39
0.53487813 -0.27438444 0.74618077 2.8599577e-39
0.53526574 -0.27220249 0.74824566 2.8599577e-39
0.53575367 -0.26765841 0.74742287 2.8599577e-39
0.53647876 -0.26236615 0.74746323 2.8599577e-39
0.58277863 -0.26183376 0.74908692 5.7191615e-39
0.53717273 -0.25770622 0.7476216 2.8599577e-39
0.5820176 -0.25838047 0.74993265 5.7191643e-39
0.53808355 -0.25219512 0.74754274 2.8599577e-39
0.53885674 -0.24768451 0.74758154 2.8599577e-39
0.53964287 -0.24257912 0.74694085 2.8599577e-39
0.54020542 -0.24103469 0.74894917 2.8599577e-39
0.54060638 -0.23752928 0.74752462 2.8599577e-39
0.54155666 -0.23217855 0.74761295 2.8599577e-39
0.54242808 -0.22752309 0.7476396 2.8599577e-39
0.58840942 -0.22830468 0.74973249 5.7191531e-39
0.543495 -0.22274815 0.74768758 2.8599577e-39
0.54417849 -0.2176965 0.74763799 2.8599577e-39
0.59106058 -0.21660635 0.74911302 6.1801214e-39
0.54441148 -0.2128142 0.74620742 2.8599577e-39
0.54522109 -0.21249805 0.74869537 2.8599577e-39
0.54489648 -0.20982249 0.74678117 2.8599577e-39
0.54578298 -0.20728666 0.74823415 2.8599577e-39
0.54622734 -0.20250136 0.74749565 2.8599577e-39
0.59237194 -0.20198546 0.74996817 5.8113515e-39
0.54681206 -0.19773652 0.74726057 2.8599577e-39
0.54775286 -0.1922639 0.74798411 2.8599577e-39
0.54846227 -0.18740731 0.74733418 2.8599591e-39
0.54922765 -0.18279073 0.74709904 2.8599577e-39
0.55034018 -0.18276924 0.74952042 3.0443545e-39
0.5496881 -0.17805643 0.74568957 2.8599577e-39
0.55067539 -0.17704219 0.74784803 2.8599605e-39
0.55168146 -0.17255533 0.74814874 2.8599605e-39
0.55277461 -0.1676348 0.74856997 2.9521561e-39
0.55431652 -0.16400726 0.74944103 2.9521561e-39
0.5572468 -0.16147947 0.74946433 2.8599577e-39
0.56178725 -0.1605691 0.74533856 2.8599577e-39
0.5598731 -0.159587 0.74985522 2.8599577e-39
0.56348515 -0.15702458 0.74721283 2.8599577e-39
0.56735158 -0.15555981 0.74928164 3.8745006e-39
0.56614661 -0.15491359 0.74721593 3.1369145e-39
0.53818512 -0.33641684 0.75480121 2.8599577e-39
0.53428042 -0.33184385 0.75310719 2.5833638e-39
0.55753928 -0.33219844 0.75483072 5.1659989e-39
0.56345105 -0.33236325 0.7503112 4.8890449e-39
0.5327068 -0.32774609 0.75297296 1.8450603e-39
0.56152958 -0.32702544 0.75365806 5.1660017e-39
0.52984273 -0.3223522 0.75117564 1.568465e-39
0.53188354 -0.32238123 0.75326794 2.3064126e-39
0.56555212 -0.32181078 0.75247592 5.1660017e-39
0.52993566 -0.31875026 0.75106221 2.8599577e-39
0.5312857 -0.31696472 0.75316179 3.1369145e-39
0.56349981 -0.31902355 0.7548151 5.1663618e-39
0.56696427 -0.31675762 0.75314784 5.1660017e-39
0.53103584 -0.31228885 0.75220078 2.8599577e-39
0.56785554 -0.3113786 0.75441229 5.2581959e-39
0.57118243 -0.31490576 0.75064766 5.1659947e-39
0.53169489 -0.30751958 0.75267857 2.8599577e-39
0.56853712 -0.30769482 0.75477892 5.2581973e-39
0.57037735 -0.30772817 0.75383729 5.1660003e-39
0.53220558 -0.30232307 0.75266838 2.8599577e-39
0.56950092 -0.30266729 0.75482535 5.2581973e-39
0.57401097 -0.30013067 0.75202543 5.1660003e-39
0.53271657 -0.29748076 0.75248522 2.8599577e-39
0.57268006 -0.29708505 0.75352055 5.1660017e-39
0.53340721 -0.29254198 0.7525624 2.8599577e-39
0.57209504 -0.29295537 0.75417775 5.2581973e-39
0.53419614 -0.28749371 0.75298017 2.8599605e-39
0.57175726 -0.28745517 0.75455725 5.1660017e-39
0.57593894 -0.28615084 0.75214392 5.1660003e-39
0.53432721 -0.28248772 0.75145012 2.8599577e-39
0.53596771 -0.28227434 0.75404167 3.5053453e-39
0.57318026 -0.28187874 0.75409812 5.1660003e-39
0.53480464 -0.27850014 0.75125408 3.0443545e-39
0.53622639 -0.27719203 0.75324166 3.3209512e-39
0.57314175 -0.27730003 0.75414115 5.1660017e-39
0.536569 -0.27223575 0.75282919 3.0443545e-39
0.57301599 -0.27267575 0.75428218 5.1660017e-39
0.57840884 -0.2716406 0.75166517 5.2581973e-39
0.53716379 -0.26750407 0.75260311 3.0443545e-39
0.57268053 -0.2676582 0.7544961 5.1660017e-39
0.57838792 -0.26780638 0.75168866 5.2581973e-39
0.53778887 -0.2626684 0.75264412 3.0443545e-39
0.57357877 -0.26262751 0.75433242 5.1660017e-39
0.57835853 -0.26243895 0.75172126 5.2581973e-39
0.53847438 -0.25736791 0.75263 2.9521561e-39
0.57392734 -0.2569249 0.75439548 5.1659989e-39
0.57755148 -0.25745073 0.75262135 5.2581973e-39
0.58138919 -0.25653511 0.75063092 5.5347772e-39
0.53884763 -0.25284356 0.7521826 2.8599577e-39
0.5401572 -0.25228617 0.75472462 2.9521561e-39
0.57364476 -0.25222608 0.75471169 5.1660003e-39
0.57721567 -0.25257587 0.75356638 5.1660017e-39
0.58152694 -0.25284854 0.75124127 5.3503902e-39
0.53958416 -0.24744473 0.75160533 2.8599577e-39
0.54044187 -0.24703054 0.75381583 2.8599577e-39
0.57345885 -0.24909715 0.75491977 5.1660003e-39
0.57725459 -0.2476038 0.75392926 5.1660003e-39
0.58242196 -0.24732216 0.75176853 5.2581959e-39
0.53998578 -0.24363162 0.75036114 2.8599577e-39
0.5409503 -0.24221061 0.75294971 2.8599577e-39
0.57713979 -0.24250452 0.75421953 5.1660003e-39
0.58123386 -0.24216317 0.75308394 5.1660003e-39
0.54171288 -0.23732249 0.75264275 2.8599577e-39
0.57799417 -0.2380863 0.75440341 5.1660003e-39
0.58226252 -0.23703311 0.75308639 5.1660017e-39
0.54258734 -0.23243576 0.75266057 2.8599591e-39
0.5789544 -0.23261124 0.75485259 5.1660003e-39
0.58227414 -0.23232265 0.75364143 5.1660017e-39
0.54366481 -0.22741239 0.75260514 2.9521575e-39
0.58210945 -0.22677593 0.75439 5.1663618e-39
0.58788282 -0.22575907 0.75031143 5.8113543e-39
0.54445475 -0.22387934 0.7518968 2.8599577e-39
0.54552382 -0.22155331 0.75329465 2.8599577e-39
0.5862543 -0.2219777 0.75210136 5.2581959e-39
