# .PCD v0.7 - Point Cloud Data file format
VERSION 0.7
FIELDS x y z rgb
SIZE 4 4 4 4
TYPE F F F F
COUNT 1 1 1 1
WIDTH 1013
HEIGHT 1
VIEWPOINT 0 0 0 1 0 0 0
POINTS 1013
DATA ascii
0.47325295 -0.30244142 0.60999954 1.0879084e-38
0.47746286 -0.30234712 0.6099996 1.0879084e-38
0.48188263 -0.30251038 0.6099996 1.0879084e-38
0.48722899 -0.30239174 0.6099996 1.097128e-38
0.49262351 -0.30253717 0.60999966 1.097128e-38
0.49806756 -0.30241758 0.60999966 1.097128e-38
0.50264126 -0.30285227 0.60999966 1.097128e-38
0.5072521 -0.30248496 0.60999972 1.097128e-38
0.5128305 -0.30236369 0.60999972 1.097128e-38
0.51738292 -0.30241865 0.60999972 1.097128e-38
0.52224296 -0.30270156 0.60999978 1.097128e-38
0.52672231 -0.3014707 0.60975862 3.3205659e-39
0.32999837 -0.29760665 0.60737908 0
0.33230689 -0.2975654 0.60999864 1.0879084e-38
0.3377071 -0.29734075 0.6099987 1.0879084e-38
0.3424255 -0.29749185 0.60999864 1.0879084e-38
0.34737507 -0.29751423 0.6099987 1.0879084e-38
0.35232255 -0.29742905 0.6099987 1.0879084e-38
0.35727194 -0.2975173 0.6099987 1.0879084e-38
0.3624087 -0.2973657 0.6099987 1.0879084e-38
0.36735687 -0.29752019 0.60999876 1.0879084e-38
0.37254357 -0.29754359 0.60999876 1.0879084e-38
0.37774804 -0.29752946 0.60999882 1.0879084e-38
0.38285959 -0.29748449 0.60999882 1.0879084e-38
0.38736123 -0.2975964 0.60999888 1.0879084e-38
0.39255208 -0.29739162 0.60999894 1.0879084e-38
0.39796498 -0.29753706 0.60999906 1.0879084e-38
0.40259314 -0.29765072 0.60999912 1.0879084e-38
0.40724602 -0.29751959 0.60999912 1.0879084e-38
0.41262862 -0.29731065 0.60999912 1.0879084e-38
0.41825691 -0.29770657 0.60999918 1.0879084e-38
0.42304301 -0.29757386 0.60999918 1.0879084e-38
0.42787018 -0.2974399 0.60999918 1.0879084e-38
0.43257591 -0.29756159 0.60999918 1.0879084e-38
0.4373211 -0.29768348 0.60999924 1.0879084e-38
0.4422718 -0.29754835 0.60999924 1.0879084e-38
0.44726568 -0.29741207 0.6099993 1.0879084e-38
0.45230332 -0.29727456 0.6099993 1.0879084e-38
0.45755535 -0.29764563 0.60999936 1.0879084e-38
0.46268377 -0.29750785 0.60999948 1.0879084e-38
0.46785775 -0.29736897 0.60999954 1.0879084e-38
0.4730781 -0.29748961 0.60999954 1.0879084e-38
0.4774628 -0.29763508 0.6099996 1.0879084e-38
0.48170528 -0.29752296 0.6099996 1.0879084e-38
0.48705 -0.29738182 0.60999966 1.0879084e-38
0.49262375 -0.29749939 0.60999966 1.097128e-38
0.49806774 -0.29735681 0.60999966 1.097128e-38
0.50277245 -0.2976158 0.60999966 1.097128e-38
0.50725216 -0.29765394 0.60999966 1.097128e-38
0.5128305 -0.29751036 0.60999972 1.097128e-38
0.51751739 -0.29711869 0.60999972 1.097128e-38
0.52224284 -0.29753894 0.60999978 1.097128e-38
0.32999837 -0.2920962 0.60737908 0
0.33235243 -0.29257429 0.60999864 1.0879084e-38
0.33775237 -0.29232383 0.60999864 1.0879084e-38
0.34268907 -0.29261455 0.60999864 1.0879084e-38
0.34742117 -0.2924507 0.6099987 1.0879084e-38
0.35232228 -0.2925148 0.6099987 1.0879084e-38
0.35727137 -0.29257995 0.6099987 1.0879084e-38
0.36213487 -0.2924138 0.6099987 1.0879084e-38
0.36725268 -0.29253083 0.60999876 1.0879084e-38
0.37226447 -0.29254451 0.60999876 1.0879084e-38
0.37732655 -0.29247662 0.60999876 1.0879084e-38
0.38257533 -0.2924374 0.60999888 1.0879084e-38
0.38707444 -0.29252842 0.60999888 1.0879084e-38
0.39243543 -0.29264879 0.60999894 1.0879084e-38
0.3976728 -0.29241967 0.60999906 1.0879084e-38
0.40229824 -0.29251191 0.60999912 1.0879084e-38
0.40709013 -0.29260033 0.60999906 1.0879084e-38
0.41250768 -0.29248089 0.60999912 1.0879084e-38
0.41795358 -0.29249489 0.60999912 1.0879084e-38
0.42288262 -0.29258454 0.60999918 1.0879084e-38
0.42770839 -0.29242921 0.60999918 1.0879084e-38
0.43272397 -0.29252005 0.60999918 1.0879084e-38
0.43764982 -0.29261559 0.60999924 1.0879084e-38
0.44260335 -0.29245839 0.60999924 1.0879084e-38
0.44743279 -0.29256064 0.6099993 1.0879084e-38
0.452472 -0.29240188 0.60999936 1.0879084e-38
0.45738539 -0.29250398 0.60999948 1.0879084e-38
0.46251231 -0.29234356 0.60999948 1.0879084e-38
0.46785796 -0.29243559 0.60999948 1.0879084e-38
0.47307792 -0.29253429 0.60999954 1.0879084e-38
0.47758862 -0.29250747 0.6099996 1.0879084e-38
0.48188263 -0.29252622 0.6099996 1.0879084e-38
0.48722899 -0.29236251 0.6099996 1.0879084e-38
0.49244317 -0.29246753 0.60999966 1.0879084e-38
0.49806774 -0.29256248 0.60999966 1.0879084e-38
0.5026412 -0.29242432 0.60999966 1.097128e-38
0.50743735 -0.29254851 0.60999966 1.097128e-38
0.5128305 -0.29265702 0.60999972 1.097128e-38
0.51751739 -0.29224667 0.60999972 1.097128e-38
0.52224302 -0.29237634 0.60999978 1.097128e-38
0.32999837 -0.28727454 0.60737908 0
0.33226216 -0.28740463 0.60999864 1.0879084e-38
0.33775288 -0.2874774 0.60999864 1.0879084e-38
0.34256372 -0.28751788 0.60999864 1.0879084e-38
0.34742171 -0.28755924 0.60999864 1.0879084e-38
0.35232255 -0.28760046 0.6099987 1.0879084e-38
0.35731915 -0.28746817 0.6099987 1.0879084e-38
0.3624087 -0.2874431 0.6099987 1.0879084e-38
0.36735687 -0.28755146 0.60999876 1.0879084e-38
0.37254354 -0.28752652 0.60999876 1.0879084e-38
0.37774807 -0.2874639 0.60999882 1.0879084e-38
0.38287324 -0.28761157 0.60999888 1.0879084e-38
0.38736129 -0.28744131 0.60999888 1.0879084e-38
0.39254463 -0.28755221 0.60999888 1.0879084e-38
0.39797902 -0.28752667 0.60999906 1.0879084e-38
0.4025932 -0.28735361 0.60999912 1.0879084e-38
0.40693465 -0.28768307 0.60999912 1.0879084e-38
0.41256866 -0.28747424 0.60999912 1.0879084e-38
0.41809803 -0.28751835 0.60999912 1.0879084e-38
0.42272267 -0.28759727 0.60999918 1.0879084e-38
0.42754707 -0.28742066 0.60999918 1.0879084e-38
0.43241304 -0.28724247 0.60999918 1.0879084e-38
0.43748528 -0.28756228 0.60999924 1.0879084e-38
0.44243735 -0.28738314 0.60999924 1.0879084e-38
0.44760019 -0.28770703 0.6099993 1.0879084e-38
0.45264077 -0.28752699 0.6099993 1.0879084e-38
0.4575555 -0.2876091 0.60999942 1.0879084e-38
0.46268395 -0.28742704 0.60999942 1.0879084e-38
0.46768481 -0.2875087 0.60999954 1.0879084e-38
0.4729034 -0.28732458 0.60999954 1.0879084e-38
0.47746286 -0.28742501 0.6099996 1.0879084e-38
0.48206013 -0.28752714 0.6099996 1.0879084e-38
0.48722893 -0.28761142 0.6099996 1.0879084e-38
0.49262375 -0.28742468 0.60999966 1.0879084e-38
0.49788556 -0.28750843 0.60999966 1.0879084e-38
0.5026412 -0.28761169 0.60999966 1.0879084e-38
0.50725204 -0.28745425 0.60999972 1.097128e-38
0.51301742 -0.28752729 0.60999972 1.097128e-38
0.51751739 -0.28737462 0.60999972 1.097128e-38
0.52224302 -0.28748536 0.60999984 1.097128e-38
0.32999837 -0.28245288 0.60737908 0
0.33230689 -0.28241357 0.60999864 1.0879084e-38
0.3377524 -0.28263104 0.60999864 1.0879084e-38
0.34243792 -0.28242311 0.60999864 1.0879084e-38
0.34742117 -0.28266779 0.6099987 1.0879084e-38
0.35219446 -0.28245807 0.6099987 1.0879084e-38
0.35721686 -0.28252661 0.6099987 1.0879084e-38
0.36213493 -0.28249371 0.6099987 1.0879084e-38
0.36725268 -0.28256309 0.60999876 1.0879084e-38
0.37226447 -0.28253004 0.60999876 1.0879084e-38
0.37732658 -0.28241497 0.60999882 1.0879084e-38
0.38258877 -0.28256705 0.60999882 1.0879084e-38
0.38707444 -0.28237593 0.60999888 1.0879084e-38
0.39243549 -0.28244632 0.60999894 1.0879084e-38
0.39768657 -0.28241196 0.60999906 1.0879084e-38
0.40243855 -0.28245646 0.60999906 1.0879084e-38
0.40723181 -0.28250191 0.60999912 1.0879084e-38
0.41262862 -0.28246695 0.60999912 1.0879084e-38
0.41824234 -0.28253987 0.60999912 1.0879084e-38
0.42304301 -0.2825914 0.60999918 1.0879084e-38
0.42787018 -0.28239328 0.60999918 1.0879084e-38
0.43257591 -0.28245226 0.60999918 1.0879084e-38
0.43732113 -0.28251106 0.60999924 1.0879084e-38
0.4422718 -0.28230998 0.60999924 1.0879084e-38
0.4474327 -0.28261033 0.6099993 1.0879084e-38
0.45247179 -0.28240794 0.6099993 1.0879084e-38
0.45772582 -0.28271204 0.60999936 1.0879084e-38
0.46285573 -0.28250828 0.60999948 1.0879084e-38
0.46785796 -0.28256965 0.60999948 1.0879084e-38
0.4730781 -0.28236347 0.60999954 1.0879084e-38
0.47733706 -0.28234425 0.6099996 1.0879084e-38
0.48188263 -0.28254044 0.6099996 1.0879084e-38
0.48740807 -0.28258905 0.6099996 1.0879084e-38
0.49262375 -0.28265205 0.60999966 1.0879084e-38
0.4980678 -0.28244185 0.60999966 1.0879084e-38
0.50251007 -0.28242248 0.60999966 1.0879084e-38
0.5072521 -0.2826232 0.60999972 1.0879084e-38
0.5128305 -0.28241029 0.60999972 1.0879084e-38
0.51751739 -0.28250256 0.60999972 1.097128e-38
0.52224308 -0.28259447 0.60999972 1.097128e-38
0.52604699 -0.28299636 0.6099999 1.097128e-38
0.32999837 -0.27763125 0.60737908 0
0.33235237 -0.27742177 0.60999864 1.0879084e-38
0.33779842 -0.27761301 0.60999864 1.0879084e-38
0.34270176 -0.27754191 0.60999864 1.0879084e-38
0.34746805 -0.27760309 0.6099987 1.0879084e-38
0.35246322 -0.2775313 0.6099987 1.0879084e-38
0.35731909 -0.27759302 0.6099987 1.0879084e-38
0.3624087 -0.27752051 0.6099987 1.0879084e-38
0.3673569 -0.27758273 0.60999876 1.0879084e-38
0.37254357 -0.27750951 0.60999876 1.0879084e-38
0.3777481 -0.27739838 0.60999876 1.0879084e-38
0.38287324 -0.27749828 0.60999888 1.0879084e-38
0.38736123 -0.27728611 0.60999888 1.0879084e-38
0.39249426 -0.27752933 0.60999882 1.0879084e-38
0.39797908 -0.27727255 0.60999906 1.0879084e-38
0.40228438 -0.27756125 0.60999912 1.0879084e-38
0.40693468 -0.27734551 0.60999906 1.0879084e-38
0.41250768 -0.27763873 0.60999912 1.0879084e-38
0.41793928 -0.27733231 0.60999912 1.0879084e-38
0.42288262 -0.27760428 0.60999918 1.0879084e-38
0.42770845 -0.27738476 0.60999918 1.0879084e-38
0.43273887 -0.27765995 0.60999918 1.0879084e-38
0.43764988 -0.27743873 0.60999924 1.0879084e-38
0.4424375 -0.27747747 0.60999924 1.0879084e-38
0.44726568 -0.27751577 0.6099993 1.0879084e-38
0.45230332 -0.27729106 0.6099993 1.0879084e-38
0.45755535 -0.27757123 0.60999942 1.0879084e-38
0.46268377 -0.27734473 0.60999948 1.0879084e-38
0.46803126 -0.27762833 0.60999954 1.0879084e-38
0.47307813 -0.27766895 0.60999948 1.0879084e-38
0.47746286 -0.27721611 0.6099996 1.0879084e-38
0.48188248 -0.27754802 0.6099996 1.0879084e-38
0.48722899 -0.27758062 0.6099996 1.0879084e-38
0.49280453 -0.27760616 0.60999966 1.0879084e-38
0.49806774 -0.2776475 0.60999966 1.0879084e-38
0.50264126 -0.27718496 0.60999966 1.0879084e-38
0.50725192 -0.27752385 0.60999966 1.0879084e-38
0.5128305 -0.27755702 0.60999972 1.0879084e-38
0.51751739 -0.27763051 0.60999972 1.0879084e-38
0.52205336 -0.27744019 0.60999978 1.0879084e-38
0.52604699 -0.27809024 0.6099999 1.097128e-38
0.32999837 -0.27280959 0.60737908 0
0.33211371 -0.27242151 0.60999864 1.0879084e-38
0.33770719 -0.27241743 0.60999864 1.0879084e-38
0.34243795 -0.2726866 0.60999864 1.0879084e-38
0.34722227 -0.27252969 0.60999864 1.0879084e-38
0.35219446 -0.27263069 0.6099987 1.0879084e-38
0.35706878 -0.27247205 0.6099987 1.0879084e-38
0.36213487 -0.27257368 0.6099987 1.0879084e-38
0.36710176 -0.27241328 0.60999876 1.0879084e-38
0.37226447 -0.27251562 0.60999876 1.0879084e-38
0.37748045 -0.27253717 0.60999882 1.0879084e-38
0.38258874 -0.27245638 0.60999882 1.0879084e-38
0.38721091 -0.27245784 0.60999888 1.0879084e-38
0.39249367 -0.27242795 0.609999 1.0879084e-38
0.39782569 -0.27239722 0.609999 1.0879084e-38
0.40259314 -0.27264351 0.60999912 1.0879084e-38
0.40724611 -0.27240705 0.60999912 1.0879084e-38
0.41256863 -0.27263135 0.60999912 1.0879084e-38
0.41825691 -0.27234486 0.60999912 1.0879084e-38
0.42272273 -0.27261919 0.60999912 1.0879084e-38
0.42754713 -0.27237833 0.60999918 1.0879084e-38
0.43257576 -0.27263054 0.60999918 1.0879084e-38
0.43748528 -0.27238759 0.60999924 1.0879084e-38
0.44260341 -0.27264276 0.60999924 1.0879084e-38
0.44760019 -0.27239773 0.6099993 1.0879084e-38
0.45247194 -0.27241543 0.60999942 1.0879084e-38
0.45738539 -0.27243251 0.60999936 1.0879084e-38
0.46268395 -0.27243316 0.60999942 1.0879084e-38
0.46785778 -0.27244252 0.60999954 1.0879084e-38
0.47325295 -0.27270484 0.60999954 1.0879084e-38
0.47746286 -0.27250406 0.6099996 1.0879084e-38
0.48170537 -0.27230161 0.6099996 1.0879084e-38
0.48722878 -0.27256563 0.6099996 1.0879084e-38
0.49262375 -0.27257574 0.60999966 1.0879084e-38
0.49825016 -0.27257785 0.60999966 1.0879084e-38
0.50264126 -0.27237234 0.60999972 1.0879084e-38
0.5072521 -0.27242434 0.60999966 1.0879084e-38
0.51283032 -0.27243406 0.60999972 1.0879084e-38
0.51751739 -0.27275848 0.60999972 1.0879084e-38
0.52224302 -0.27227005 0.60999984 1.0879084e-38
0.52604699 -0.27318415 0.6099999 1.097128e-38
0.32999837 -0.26729912 0.60737908 0
0.33244246 -0.26743773 0.60999864 1.0879084e-38
0.33775237 -0.26739946 0.6099987 1.0879084e-38
0.34268907 -0.26757184 0.60999864 1.0879084e-38
0.34756076 -0.26747316 0.60999864 1.0879084e-38
0.35245031 -0.26746807 0.6099987 1.0879084e-38
0.35747457 -0.26754576 0.6099987 1.0879084e-38
0.36239558 -0.26736239 0.60999876 1.0879084e-38
0.36751527 -0.26744029 0.60999876 1.0879084e-38
0.37254363 -0.26749247 0.60999876 1.0879084e-38
0.37758663 -0.26750821 0.60999876 1.0879084e-38
0.3828733 -0.26738495 0.60999882 1.0879084e-38
0.38706094 -0.26763141 0.60999888 1.0879084e-38
0.39249423 -0.26732638 0.60999882 1.0879084e-38
0.3976728 -0.26752383 0.60999906 1.0879084e-38
0.40229827 -0.2675114 0.60999912 1.0879084e-38
0.40709019 -0.26749134 0.60999906 1.0879084e-38
0.41256803 -0.26743636 0.60999918 1.0879084e-38
0.41809788 -0.26738039 0.60999912 1.0879084e-38
0.42304301 -0.26760903 0.60999918 1.0879084e-38
0.42787018 -0.26734662 0.60999918 1.0879084e-38
0.43241304 -0.26760322 0.60999918 1.0879084e-38
0.4373211 -0.26733857 0.60999924 1.0879084e-38
0.44243732 -0.26757035 0.60999924 1.0879084e-38
0.4474327 -0.26730323 0.6099993 1.0879084e-38
0.45264071 -0.26753759 0.60999936 1.0879084e-38
0.4575555 -0.26753473 0.60999936 1.0879084e-38
0.46251231 -0.26753104 0.60999948 1.0879084e-38
0.46768481 -0.267259 0.60999954 1.0879084e-38
0.47307795 -0.26749665 0.60999954 1.0879084e-38
0.4774628 -0.26779199 0.6099996 1.0879084e-38
0.48188263 -0.26730108 0.6099996 1.0879084e-38
0.48705 -0.26729625 0.6099996 1.0879084e-38
0.49262351 -0.26753801 0.60999966 1.0879084e-38
0.49806774 -0.26752526 0.60999966 1.0879084e-38
0.50264126 -0.26755968 0.60999966 1.0879084e-38
0.50706714 -0.2673347 0.60999966 1.0879084e-38
0.5128305 -0.26731107 0.60999972 1.0879084e-38
0.51751739 -0.26788643 0.60999972 1.0879084e-38
0.52224302 -0.26737916 0.60999984 1.0879084e-38
0.52686638 -0.26730248 0.60999984 1.0879084e-38
0.32999837 -0.26247749 0.60737908 0
0.33230743 -0.26244065 0.60999864 1.0879084e-38
0.33775288 -0.26255298 0.6099987 1.0879084e-38
0.34256372 -0.26247814 0.60999864 1.0879084e-38
0.34742168 -0.2624031 0.6099987 1.0879084e-38
0.35218176 -0.26257005 0.6099987 1.0879084e-38
0.35706878 -0.2625992 0.6099987 1.0879084e-38
0.362122 -0.26241821 0.6099987 1.0879084e-38
0.36710173 -0.26244691 0.60999876 1.0879084e-38
0.3722645 -0.26250115 0.60999876 1.0879084e-38
0.37748045 -0.26247412 0.60999882 1.0879084e-38
0.38258877 -0.26234573 0.60999882 1.0879084e-38
0.38734749 -0.26253784 0.60999888 1.0879084e-38
0.39255208 -0.26240814 0.60999882 1.0879084e-38
0.39797902 -0.26262388 0.60999906 1.0879084e-38
0.4025932 -0.26234645 0.60999906 1.0879084e-38
0.40693468 -0.26257759 0.60999906 1.0879084e-38
0.41238707 -0.26242378 0.60999912 1.0879084e-38
0.41793928 -0.26241788 0.60999912 1.0879084e-38
0.42288262 -0.26262403 0.60999918 1.0879084e-38
0.42770845 -0.26234025 0.60999918 1.0879084e-38
0.43273896 -0.26254851 0.60999918 1.0879084e-38
0.43748537 -0.26252475 0.60999924 1.0879084e-38
0.44227177 -0.26250014 0.60999924 1.0879084e-38
0.44726571 -0.26221091 0.60999924 1.0879084e-38
0.45247182 -0.26242152 0.6099993 1.0879084e-38
0.45772576 -0.26263469 0.6099993 1.0879084e-38
0.46268395 -0.26261082 0.60999942 1.0879084e-38
0.46785796 -0.26231691 0.60999948 1.0879084e-38
0.4729034 -0.26229072 0.60999954 1.0879084e-38
0.47758859 -0.26266122 0.6099996 1.0879084e-38
0.48188263 -0.26257133 0.6099996 1.0879084e-38
0.48722899 -0.26227239 0.60999966 1.0879084e-38
0.49262375 -0.26250023 0.60999966 1.0879084e-38
0.49806756 -0.26246458 0.60999966 1.0879084e-38
0.5026412 -0.26274705 0.60999966 1.0879084e-38
0.5072521 -0.26222625 0.60999972 1.0879084e-38
0.5128305 -0.26245776 0.60999972 1.0879084e-38
0.51751739 -0.26301441 0.60999972 1.0879084e-38
0.52224302 -0.26248825 0.60999984 1.0879084e-38
0.52700293 -0.26195738 0.6099999 1.0879084e-38
0.73463476 -0.26169756 0.60703361 1.097128e-38
0.32999837 -0.25765583 0.60737908 0
0.33217165 -0.25744566 0.60999858 1.0879084e-38
0.33761567 -0.25753173 0.6099987 1.0879084e-38
0.34243795 -0.25738639 0.60999864 1.0879084e-38
0.34742117 -0.25751171 0.60999864 1.0879084e-38
0.35245031 -0.25763831 0.6099987 1.0879084e-38
0.35741356 -0.25749195 0.6099987 1.0879084e-38
0.36239555 -0.25743994 0.6099987 1.0879084e-38
0.3675153 -0.25747007 0.60999876 1.0879084e-38
0.37254363 -0.25747541 0.60999876 1.0879084e-38
0.37753764 -0.2576232 0.60999876 1.0879084e-38
0.38287324 -0.25727168 0.60999882 1.0879084e-38
0.38706094 -0.2574791 0.60999888 1.0879084e-38
0.3922773 -0.25748482 0.60999882 1.0879084e-38
0.39768657 -0.25751579 0.60999906 1.0879084e-38
0.40243858 -0.25745273 0.60999906 1.0879084e-38
0.40724611 -0.257635 0.60999912 1.0879084e-38
0.41279295 -0.25742093 0.60999912 1.0879084e-38
0.41825691 -0.2574262 0.60999912 1.0879084e-38
0.42272267 -0.25764108 0.60999918 1.0879084e-38
0.42754707 -0.25733596 0.60999918 1.0879084e-38
0.43257576 -0.25752124 0.60999918 1.0879084e-38
0.43764982 -0.25770885 0.60999924 1.0879084e-38
0.44260335 -0.25739995 0.60999924 1.0879084e-38
0.44743285 -0.25735438 0.60999936 1.0879084e-38
0.45230332 -0.25730753 0.60999948 1.0879084e-38
0.45755535 -0.25749677 0.60999948 1.0879084e-38
0.46285573 -0.25768843 0.60999948 1.0879084e-38
0.46785796 -0.25764319 0.60999948 1.0879084e-38
0.4730781 -0.25732586 0.60999954 1.0879084e-38
0.47733706 -0.25721589 0.6099996 1.0879084e-38
0.48206013 -0.25756779 0.6099996 1.0879084e-38
0.48722899 -0.2575213 0.6099996 1.0879084e-38
0.49244317 -0.25747362 0.60999966 1.0879084e-38
0.49806774 -0.25740382 0.60999966 1.0879084e-38
0.5026412 -0.25793445 0.60999966 1.0879084e-38
0.5072521 -0.25739527 0.60999972 1.0879084e-38
0.51264381 -0.25734615 0.60999972 1.0879084e-38
0.51765186 -0.25770888 0.60999972 1.0879084e-38
0.52224296 -0.2575973 0.60999978 1.0879084e-38
0.52700293 -0.25704744 0.6099999 1.0879084e-38
0.32999837 -0.25214535 0.60737908 0
0.33250067 -0.25245661 0.60999864 1.0879084e-38
0.33794814 -0.25251642 0.60999864 1.0879084e-38
0.34270182 -0.25249889 0.60999864 1.0879084e-38
0.34746805 -0.25244585 0.6099987 1.0879084e-38
0.35232255 -0.25249827 0.6099987 1.0879084e-38
0.35727194 -0.25237563 0.6099987 1.0879084e-38
0.36212197 -0.2524983 0.6099987 1.0879084e-38
0.36710173 -0.25248057 0.60999876 1.0879084e-38
0.3722645 -0.25248668 0.60999876 1.0879084e-38
0.37753701 -0.25259152 0.60999876 1.0879084e-38
0.38272411 -0.25246596 0.60999888 1.0879084e-38
0.38736129 -0.25262365 0.60999888 1.0879084e-38
0.39271054 -0.25238881 0.609999 1.0879084e-38
0.39797902 -0.25236979 0.609999 1.0879084e-38
0.40228432 -0.252561 0.60999906 1.0879084e-38
0.40694866 -0.25248525 0.60999912 1.0879084e-38
0.41250768 -0.25240713 0.60999918 1.0879084e-38
0.41809782 -0.25246379 0.60999912 1.0879084e-38
0.42304301 -0.25262663 0.60999918 1.0879084e-38
0.42770857 -0.25256199 0.60999918 1.0879084e-38
0.43241304 -0.25249609 0.60999918 1.0879084e-38
0.43748528 -0.25266054 0.60999924 1.0879084e-38
0.44243735 -0.25232983 0.60999924 1.0879084e-38
0.44760022 -0.25249559 0.6099993 1.0879084e-38
0.452472 -0.25242901 0.6099993 1.0879084e-38
0.45738536 -0.25236103 0.6099993 1.0879084e-38
0.46268377 -0.25252855 0.60999948 1.0879084e-38
0.46803123 -0.25269821 0.60999954 1.0879084e-38
0.4730781 -0.25263131 0.60999954 1.0879084e-38
0.47746286 -0.25208512 0.6099996 1.0879084e-38
0.48188263 -0.25258559 0.6099996 1.0879084e-38
0.48740801 -0.25249439 0.6099996 1.0879084e-38
0.49262381 -0.25242549 0.60999966 1.0879084e-38
0.49788556 -0.25235513 0.60999966 1.0879084e-38
0.50277239 -0.25269309 0.60999966 1.0879084e-38
0.5072521 -0.25256422 0.60999966 1.0879084e-38
0.5128305 -0.25221264 0.60999972 1.0879084e-38
0.51751739 -0.25245768 0.60999972 1.0879084e-38
0.52224308 -0.25270641 0.60999978 1.0879084e-38
0.5279609 -0.25235114 0.6099999 1.0879084e-38
0.32999837 -0.24732374 0.60737908 0
0.33226213 -0.24746062 0.60999858 1.0879084e-38
0.33770716 -0.24749412 0.60999864 1.0879084e-38
0.34243792 -0.24764995 0.60999864 1.0879084e-38
0.34722224 -0.24737835 0.6099987 1.0879084e-38
0.35219446 -0.24736018 0.6099987 1.0879084e-38
0.35727137 -0.24743836 0.6099987 1.0879084e-38
0.36239552 -0.24751745 0.60999876 1.0879084e-38
0.3675153 -0.24749993 0.60999876 1.0879084e-38
0.37254357 -0.24745834 0.60999876 1.0879084e-38
0.37751228 -0.24762143 0.60986388 1.0879084e-38
0.38257536 -0.24766216 0.60999882 1.0879084e-38
0.38707444 -0.24756747 0.60999888 1.0879084e-38
0.39243543 -0.24746659 0.60999888 1.0879084e-38
0.39782572 -0.24749789 0.609999 1.0879084e-38
0.40259323 -0.24763629 0.60999912 1.0879084e-38
0.40709031 -0.2475525 0.60999912 1.0879084e-38
0.4123871 -0.24758324 0.60999912 1.0879084e-38
0.41793928 -0.24750347 0.60999912 1.0879084e-38
0.42273709 -0.24740499 0.60999918 1.0879084e-38
0.4278554 -0.24753629 0.60999918 1.0879084e-38
0.43273893 -0.24743703 0.60999918 1.0879084e-38
0.43732113 -0.24761435 0.60999924 1.0879084e-38
0.4422718 -0.24726173 0.60999924 1.0879084e-38
0.4474327 -0.24740402 0.6099993 1.0879084e-38
0.45264077 -0.24754825 0.6099993 1.0879084e-38
0.4575555 -0.24746031 0.60999942 1.0879084e-38
0.46251234 -0.24737084 0.60999948 1.0879084e-38
0.46785775 -0.24751613 0.60999954 1.0879084e-38
0.47325295 -0.24766347 0.6099996 1.0879084e-38
0.47746286 -0.24737304 0.6099996 1.0879084e-38
0.48188248 -0.24759316 0.6099996 1.0879084e-38
0.48722899 -0.24749048 0.6099996 1.0879084e-38
0.49262375 -0.24765284 0.60999966 1.0879084e-38
0.49806774 -0.24728322 0.60999966 1.0879084e-38
0.5026412 -0.24750648 0.60999966 1.0879084e-38
0.5072521 -0.24773319 0.60999972 1.0879084e-38
0.5128305 -0.24735935 0.60999972 1.0879084e-38
0.51751739 -0.24758564 0.60999972 1.0879084e-38
0.52224302 -0.24781547 0.60999984 1.0879084e-38
0.5279609 -0.2474374 0.6099999 1.0879084e-38
0.32999837 -0.24250208 0.60737908 0
0.33230689 -0.24246784 0.60999864 1.0879084e-38
0.3377524 -0.24247506 0.60999864 1.0879084e-38
0.34268907 -0.24252914 0.60999864 1.0879084e-38
0.34762058 -0.24248837 0.6099987 1.0879084e-38
0.35246322 -0.24242446 0.6099987 1.0879084e-38
0.35727194 -0.24250092 0.6099987 1.0879084e-38
0.36212197 -0.24257836 0.60999876 1.0879084e-38
0.36710173 -0.24251427 0.60999876 1.0879084e-38
0.37226447 -0.24247226 0.60999876 1.0879084e-38
0.37753704 -0.24252795 0.60999876 1.0879084e-38
0.38285959 -0.24258436 0.60999882 1.0879084e-38
0.38736123 -0.24246851 0.60999888 1.0879084e-38
0.39249423 -0.24254772 0.60999888 1.0879084e-38
0.3976728 -0.24262795 0.60999906 1.0879084e-38
0.40229827 -0.24251081 0.60999912 1.0879084e-38
0.40723178 -0.24261785 0.60999912 1.0879084e-38
0.41279301 -0.242575 0.60999912 1.0879084e-38
0.41825691 -0.24250753 0.60999912 1.0879084e-38
0.42288277 -0.24240136 0.60999918 1.0879084e-38
0.42754707 -0.24229363 0.60999918 1.0879084e-38
0.43257576 -0.24241197 0.60999918 1.0879084e-38
0.43764982 -0.24253199 0.60999924 1.0879084e-38
0.4424375 -0.24242412 0.60999924 1.0879084e-38
0.44726568 -0.24231458 0.60999924 1.0879084e-38
0.45247179 -0.2424351 0.6099993 1.0879084e-38
0.45772576 -0.24255736 0.6099993 1.0879084e-38
0.46268395 -0.24244767 0.60999942 1.0879084e-38
0.46768481 -0.24233627 0.60999954 1.0879084e-38
0.47307792 -0.24245903 0.6099996 1.0879084e-38
0.47746286 -0.24266098 0.6099996 1.0879084e-38
0.48170528 -0.2423512 0.6099996 1.0879084e-38
0.48722887 -0.24247551 0.6099996 1.0879084e-38
0.49280444 -0.24260163 0.60999966 1.0879084e-38
0.49806774 -0.24248886 0.60999966 1.0879084e-38
0.50251001 -0.24232161 0.60999966 1.0879084e-38
0.50743729 -0.24262014 0.60999972 1.0879084e-38
0.5128305 -0.24250606 0.60999972 1.0879084e-38
0.51738292 -0.24233678 0.60999972 1.0879084e-38
0.52243286 -0.24263906 0.60999978 1.0879084e-38
0.5279609 -0.24252361 0.6099999 1.0879084e-38
0.53180051 -0.24006312 0.6099999 1.0879084e-38
0.84796214 -0.24000324 0.60955751 1.097128e-38
0.32999837 -0.23768042 0.60737908 0
0.33235237 -0.23747428 0.60999858 1.0879084e-38
0.33779845 -0.23745522 0.60999864 1.0879084e-38
0.34242553 -0.23768267 0.60999864 1.0879084e-38
0.34722227 -0.2375973 0.60999864 1.0879084e-38
0.35219443 -0.23753279 0.6099987 1.0879084e-38
0.35727137 -0.23756365 0.6099987 1.0879084e-38
0.36239555 -0.23759499 0.60999876 1.0879084e-38
0.3675153 -0.23752975 0.60999876 1.0879084e-38
0.37254357 -0.23744127 0.60999876 1.0879084e-38
0.37753764 -0.23749606 0.60999876 1.0879084e-38
0.38257536 -0.23755164 0.60999882 1.0879084e-38
0.38707444 -0.23741502 0.60999888 1.0879084e-38
0.39249364 -0.23744631 0.60999888 1.0879084e-38
0.39796498 -0.23747815 0.60999894 1.0879084e-38
0.4025932 -0.23733921 0.60999906 1.0879084e-38
0.40693465 -0.23747213 0.60999906 1.0879084e-38
0.41250768 -0.23756503 0.60999918 1.0879084e-38
0.41809788 -0.23754725 0.60999912 1.0879084e-38
0.42304301 -0.23764431 0.60999918 1.0879084e-38
0.42770854 -0.23751754 0.60999918 1.0879084e-38
0.43241304 -0.23738897 0.60999918 1.0879084e-38
0.43748522 -0.23748589 0.60999924 1.0879084e-38
0.44260341 -0.23758435 0.60999924 1.0879084e-38
0.44743285 -0.23745513 0.60999936 1.0879084e-38
0.45230332 -0.23732404 0.6099993 1.0879084e-38
0.45755535 -0.23742239 0.60999948 1.0879084e-38
0.46285573 -0.23752229 0.60999948 1.0879084e-38
0.46785796 -0.23739052 0.60999948 1.0879084e-38
0.4729034 -0.23725681 0.60999954 1.0879084e-38
0.47746286 -0.23794891 0.6099996 1.0879084e-38
0.48188263 -0.23734617 0.6099996 1.0879084e-38
0.48722893 -0.23746043 0.60999966 1.0879084e-38
0.49262375 -0.23757654 0.60999966 1.0879084e-38
0.49806774 -0.2376945 0.60999966 1.0879084e-38
0.50264126 -0.23707972 0.60999966 1.0879084e-38
0.5072521 -0.23753349 0.60999972 1.0879084e-38
0.5128305 -0.2376527 0.60999972 1.0879084e-38
0.51751739 -0.23703016 0.60999972 1.0879084e-38
0.52224302 -0.23748936 0.60999978 1.0879084e-38
0.5279609 -0.23760989 0.6099999 1.0879084e-38
0.53180051 -0.23677708 0.6099999 1.0879084e-38
0.32999837 -0.23285878 0.60737908 0
0.33211374 -0.23248322 0.60999864 1.0879084e-38
0.33755714 -0.23243785 0.60999864 1.0879084e-38
0.3425636 -0.23257028 0.60999864 1.0879084e-38
0.3475607 -0.23252946 0.6099987 1.0879084e-38
0.35245031 -0.23236169 0.6099987 1.0879084e-38
0.35727197 -0.2326262 0.6099987 1.0879084e-38
0.36212194 -0.23265846 0.6099987 1.0879084e-38
0.36710173 -0.23254795 0.60999876 1.0879084e-38
0.37226447 -0.23245782 0.60999876 1.0879084e-38
0.37753704 -0.23246433 0.60999876 1.0879084e-38
0.38285959 -0.23247118 0.60999882 1.0879084e-38
0.38736123 -0.23231339 0.60999888 1.0879084e-38
0.39231914 -0.2325287 0.609999 1.0879084e-38
0.39767283 -0.23237674 0.60999906 1.0879084e-38
0.40243855 -0.23244901 0.60999894 1.0879084e-38
0.40724605 -0.23252246 0.60999912 1.0879084e-38
0.41256866 -0.2325554 0.60999912 1.0879084e-38
0.41793928 -0.23258904 0.60999912 1.0879084e-38
0.42273703 -0.23242666 0.60999912 1.0879084e-38
0.42787018 -0.23273933 0.60999918 1.0879084e-38
0.43257594 -0.2325916 0.60999918 1.0879084e-38
0.43732113 -0.2324419 0.60999924 1.0879084e-38
0.44243735 -0.23251705 0.60999924 1.0879084e-38
0.44760028 -0.23259351 0.60999924 1.0879084e-38
0.45247206 -0.23244259 0.6099993 1.0879084e-38
0.45738539 -0.23228958 0.6099993 1.0879084e-38
0.46268377 -0.23236537 0.60999948 1.0879084e-38
0.46785796 -0.2327168 0.60999948 1.0879084e-38
0.4730781 -0.23228826 0.60999954 1.0879084e-38
0.47758862 -0.23281495 0.6099996 1.0879084e-38
0.48188263 -0.23261648 0.6099996 1.0879084e-38
0.48705006 -0.23246031 0.6099996 1.0879084e-38
0.49262363 -0.23253882 0.6099996 1.0879084e-38
0.49825016 -0.23261876 0.60999966 1.0879084e-38
0.50264126 -0.2322671 0.60999966 1.0879084e-38
0.50725192 -0.23243411 0.60999972 1.0879084e-38
0.5128305 -0.2327994 0.60999972 1.0879084e-38
0.51751739 -0.23215812 0.60999972 1.0879084e-38
0.52224308 -0.23259847 0.60999978 1.0879084e-38
0.5279609 -0.23269613 0.6099999 1.0879084e-38
0.53228295 -0.23153582 0.6099999 1.0879084e-38
0.32999837 -0.22734833 0.60737908 0
0.33244246 -0.2274867 0.60999864 1.0879084e-38
0.3378894 -0.22741506 0.60999864 1.0879084e-38
0.34270179 -0.2274559 0.60999864 1.0879084e-38
0.34742165 -0.22746405 0.60999864 1.0879084e-38
0.35218176 -0.22747257 0.6099987 1.0879084e-38
0.35712948 -0.22751473 0.6099987 1.0879084e-38
0.36239552 -0.22767252 0.6099987 1.0879084e-38
0.36751527 -0.22755955 0.60999876 1.0879084e-38
0.37254357 -0.22742423 0.60999876 1.0879084e-38
0.37753767 -0.22743247 0.60999876 1.0879084e-38
0.38257536 -0.2274411 0.60999888 1.0879084e-38
0.38721085 -0.22749129 0.60999888 1.0879084e-38
0.3927106 -0.22760527 0.60999882 1.0879084e-38
0.39797905 -0.22746702 0.609999 1.0879084e-38
0.40228432 -0.22756076 0.60999906 1.0879084e-38
0.40694866 -0.22737946 0.60999912 1.0879084e-38
0.41262868 -0.22754516 0.60999912 1.0879084e-38
0.41825691 -0.22758886 0.60999912 1.0879084e-38
0.42288277 -0.22742112 0.60999918 1.0879084e-38
0.42756167 -0.22750069 0.60999918 1.0879084e-38
0.432724 -0.22754164 0.60999918 1.0879084e-38
0.43748537 -0.22762306 0.60999924 1.0879084e-38
0.4422718 -0.22745185 0.60999924 1.0879084e-38
0.4474327 -0.22750482 0.60999924 1.0879084e-38
0.45264077 -0.22755894 0.60999924 1.0879084e-38
0.4575555 -0.22738592 0.60999936 1.0879084e-38
0.46251231 -0.22721064 0.60999948 1.0879084e-38
0.46803126 -0.22776814 0.60999954 1.0879084e-38
0.4730781 -0.22759369 0.60999954 1.0879084e-38
0.47733709 -0.227376 0.6099996 1.0879084e-38
0.48206013 -0.22760841 0.6099996 1.0879084e-38
0.48722899 -0.22743122 0.6099996 1.0879084e-38
0.49225083 -0.22742842 0.60975021 1.0879084e-38
0.49806774 -0.22757226 0.60999966 1.0879084e-38
0.50264126 -0.22745447 0.60999966 1.0879084e-38
0.5072521 -0.2273346 0.60999972 1.0879084e-38
0.51301736 -0.22766049 0.60999972 1.0879084e-38
0.51751739 -0.2272861 0.60999972 1.0879084e-38
0.52224302 -0.22770755 0.60999978 1.0879084e-38
0.5279609 -0.22778238 0.60999984 1.0879084e-38
0.53276545 -0.22711353 0.6099999 1.0879084e-38
0.80179894 -0.22773492 0.6072396 1.097128e-38
0.32999837 -0.22252667 0.60737908 0
0.33230743 -0.22249489 0.60999858 1.0879084e-38
0.33775291 -0.22239698 0.6099987 1.0879084e-38
0.34243795 -0.22261328 0.60999864 1.0879084e-38
0.34742114 -0.22257267 0.6099987 1.0879084e-38
0.35245031 -0.2225319 0.6099987 1.0879084e-38
0.3574746 -0.22239551 0.6099987 1.0879084e-38
0.36212194 -0.22273853 0.60999876 1.0879084e-38
0.36710173 -0.22258162 0.60999876 1.0879084e-38
0.3722645 -0.22244336 0.60999876 1.0879084e-38
0.37753704 -0.22240077 0.60999876 1.0879084e-38
0.38287324 -0.22259741 0.60999882 1.0879084e-38
0.38706091 -0.22267108 0.60999888 1.0879084e-38
0.3922773 -0.22251017 0.60999906 1.0879084e-38
0.39768657 -0.22236829 0.60999906 1.0879084e-38
0.40259323 -0.22262907 0.60999906 1.0879084e-38
0.40709031 -0.22244352 0.60999912 1.0879084e-38
0.41234371 -0.22254051 0.60999912 1.0879084e-38
0.41795358 -0.22239615 0.60999912 1.0879084e-38
0.42304301 -0.22266193 0.60999918 1.0879084e-38
0.42770854 -0.22247304 0.60999918 1.0879084e-38
0.4324131 -0.22228184 0.60999918 1.0879084e-38
0.43763474 -0.22255059 0.60999924 1.0879084e-38
0.44243753 -0.22261137 0.60999924 1.0879084e-38
0.44726568 -0.22241828 0.6099993 1.0879084e-38
0.45247182 -0.22244868 0.6099993 1.0879084e-38
0.45772576 -0.22248001 0.60999936 1.0879084e-38
0.46268395 -0.22228453 0.60999942 1.0879084e-38
0.46785775 -0.22258976 0.60999954 1.0879084e-38
0.47325295 -0.22262216 0.60999954 1.0879084e-38
0.47746286 -0.22224204 0.6099996 1.0879084e-38
0.48188242 -0.222368 0.6099996 1.0879084e-38
0.48722899 -0.22268009 0.60999966 1.0879084e-38
0.49262375 -0.22219889 0.60999966 1.0879084e-38
0.49806756 -0.22251157 0.60999966 1.0879084e-38
0.50264126 -0.22264183 0.60999972 1.0879084e-38
0.5072521 -0.22250359 0.60999966 1.0879084e-38
0.5128305 -0.22255267 0.60999972 1.0879084e-38
0.51751739 -0.22241406 0.60999972 1.0879084e-38
0.5222429 -0.22254494 0.60999978 1.0879084e-38
0.5279609 -0.22286861 0.6099999 1.0879084e-38
0.53276545 -0.22218056 0.6099999 1.0879084e-38
0.32999837 -0.21770503 0.60737908 0
0.33217162 -0.21750516 0.60999864 1.0879084e-38
0.33761567 -0.21738103 0.60999864 1.0879084e-38
0.34268913 -0.21748643 0.60999864 1.0879084e-38
0.34746799 -0.21750526 0.6099987 1.0879084e-38
0.35218176 -0.21764532 0.6099987 1.0879084e-38
0.35706878 -0.21746625 0.6099987 1.0879084e-38
0.36226526 -0.2175277 0.6099987 1.0879084e-38
0.36751524 -0.21758935 0.60999876 1.0879084e-38
0.37254357 -0.2174072 0.60999876 1.0879084e-38
0.37736723 -0.21755269 0.60999876 1.0879084e-38
0.38258877 -0.21756993 0.60999882 1.0879084e-38
0.38734743 -0.21756567 0.60999888 1.0879084e-38
0.39271054 -0.21740031 0.609999 1.0879084e-38
0.39782587 -0.21747293 0.609999 1.0879084e-38
0.40229827 -0.21751024 0.60999912 1.0879084e-38
0.40723181 -0.21750568 0.60999912 1.0879084e-38
0.41274995 -0.21752355 0.60999912 1.0879084e-38
0.41809803 -0.21741061 0.60999912 1.0879084e-38
0.42273709 -0.21744837 0.60999918 1.0879084e-38
0.42787018 -0.2176927 0.60999918 1.0879084e-38
0.43257591 -0.21748233 0.60999918 1.0879084e-38
0.4373211 -0.21726942 0.60999924 1.0879084e-38
0.44260341 -0.21776874 0.60999924 1.0879084e-38
0.44743288 -0.21755594 0.6099993 1.0879084e-38
0.45230332 -0.21734056 0.60999936 1.0879084e-38
0.45755535 -0.21734801 0.6099993 1.0879084e-38
0.46268395 -0.21763147 0.60999942 1.0879084e-38
0.46768481 -0.21741354 0.60999954 1.0879084e-38
0.47307792 -0.21742144 0.60999954 1.0879084e-38
0.47746286 -0.21752997 0.60999948 1.0879084e-38
0.48188263 -0.21737546 0.6099996 1.0879084e-38
0.48740807 -0.21764795 0.6099996 1.0879084e-38
0.49262375 -0.21742629 0.60999966 1.0879084e-38
0.4980678 -0.21745084 0.60999966 1.0879084e-38
0.5026412 -0.21782921 0.60999966 1.0879084e-38
0.50706714 -0.21742158 0.60999966 1.0879084e-38
0.51283032 -0.21742976 0.60999972 1.0879084e-38
0.51751739 -0.21754199 0.60999972 1.0879084e-38
0.52224302 -0.21738227 0.60999978 1.0879084e-38
0.52815247 -0.21766412 0.60999984 1.0879084e-38
0.53276545 -0.21724762 0.6099999 1.0879084e-38
0.53566617 -0.21780954 0.6099999 1.0879084e-38
0.32999837 -0.21219456 0.60737908 0
0.33250064 -0.21250336 0.60999864 1.0879084e-38
0.33794817 -0.21235286 0.60999864 1.0879084e-38
0.34242553 -0.21264632 0.60999864 1.0879084e-38
0.3472223 -0.21244599 0.6099987 1.0879084e-38
0.35232243 -0.21248245 0.6099987 1.0879084e-38
0.3574746 -0.21251889 0.6099987 1.0879084e-38
0.3624087 -0.21231484 0.6099987 1.0879084e-38
0.36710176 -0.21261527 0.60999876 1.0879084e-38
0.37226447 -0.2124289 0.60999876 1.0879084e-38
0.37768465 -0.21251331 0.60999876 1.0879084e-38
0.38287324 -0.21248412 0.60999882 1.0879084e-38
0.38706094 -0.21251874 0.60999888 1.0879084e-38
0.39243543 -0.21248688 0.60999888 1.0879084e-38
0.39796498 -0.21257567 0.609999 1.0879084e-38
0.40243867 -0.21259376 0.60999906 1.0879084e-38
0.40693468 -0.21236667 0.60999906 1.0879084e-38
0.41256803 -0.21251754 0.60999912 1.0879084e-38
0.41825691 -0.21267021 0.60999912 1.0879084e-38
0.42288277 -0.21244089 0.60999918 1.0879084e-38
0.42756158 -0.21245815 0.60999918 1.0879084e-38
0.43273896 -0.21268067 0.60999918 1.0879084e-38
0.43748543 -0.21244843 0.60999924 1.0879084e-38
0.44228676 -0.21246599 0.60999924 1.0879084e-38
0.44760019 -0.2126914 0.6099993 1.0879084e-38
0.452472 -0.21245617 0.60999936 1.0879084e-38
0.45738536 -0.21221814 0.60999936 1.0879084e-38
0.46285573 -0.21270244 0.60999948 1.0879084e-38
0.46785796 -0.21246411 0.60999948 1.0879084e-38
0.4729034 -0.21222293 0.60999954 1.0879084e-38
0.47746286 -0.21281791 0.6099996 1.0879084e-38
0.48170528 -0.21240079 0.6099996 1.0879084e-38
0.48722872 -0.21238539 0.6099996 1.0879084e-38
0.49262375 -0.21265367 0.60999966 1.0879084e-38
0.49788556 -0.21240819 0.60999966 1.0879084e-38
0.50264126 -0.21301657 0.60999972 1.0879084e-38
0.50725204 -0.21230553 0.60999972 1.0879084e-38
0.5128305 -0.21230675 0.60999972 1.0879084e-38
0.51751739 -0.21266997 0.60999972 1.0879084e-38
0.52224302 -0.21249135 0.60999978 1.0879084e-38
0.5279609 -0.2124943 0.6099999 1.0879084e-38
0.53276545 -0.21231471 0.6099999 1.0879084e-38
0.53566617 -0.212865 0.6099999 1.0879084e-38
0.85278589 -0.21152534 0.60828477 1.0879084e-38
0.32999837 -0.2073729 0.60737908 0
0.33226213 -0.20751663 0.60999864 1.0879084e-38
0.33755717 -0.20751818 0.60999864 1.0879084e-38
0.34256354 -0.2075306 0.60999864 1.0879084e-38
0.34762058 -0.20754269 0.60999864 1.0879084e-38
0.35246322 -0.20731764 0.6099987 1.0879084e-38
0.35706878 -0.20759341 0.6099987 1.0879084e-38
0.36213484 -0.20738481 0.6099987 1.0879084e-38
0.36751527 -0.20761918 0.60999876 1.0879084e-38
0.37254357 -0.20739014 0.60999876 1.0879084e-38
0.37736729 -0.20749068 0.60999876 1.0879084e-38
0.38258877 -0.2074593 0.60999882 1.0879084e-38
0.38734743 -0.20741066 0.60999888 1.0879084e-38
0.39249423 -0.20756611 0.609999 1.0879084e-38
0.39767283 -0.20748091 0.60999894 1.0879084e-38
0.40257901 -0.20767537 0.60999912 1.0879084e-38
0.40724611 -0.20740995 0.60999912 1.0879084e-38
0.41228613 -0.20737389 0.609721 1.0879084e-38
0.41795358 -0.20748153 0.60999912 1.0879084e-38
0.42304301 -0.20767955 0.60999918 1.0879084e-38
0.42770857 -0.20742854 0.60999918 1.0879084e-38
0.4324277 -0.20742497 0.60999918 1.0879084e-38
0.43764982 -0.2076253 0.60999924 1.0879084e-38
0.4424375 -0.20737079 0.60999924 1.0879084e-38
0.4474327 -0.20760563 0.6099993 1.0879084e-38
0.45264077 -0.20756957 0.6099993 1.0879084e-38
0.4575555 -0.20731151 0.60999936 1.0879084e-38
0.46268377 -0.20754918 0.60999948 1.0879084e-38
0.46803126 -0.20751238 0.60999954 1.0879084e-38
0.4730781 -0.20725065 0.60999948 1.0879084e-38
0.47758865 -0.20768127 0.6099996 1.0879084e-38
0.48188263 -0.20739128 0.6099996 1.0879084e-38
0.48722899 -0.20737033 0.6099996 1.0879084e-38
0.49280453 -0.20759717 0.60999966 1.0879084e-38
0.49806774 -0.20733021 0.60999966 1.0879084e-38
0.50277239 -0.20777032 0.60999966 1.0879084e-38
0.5072521 -0.20747449 0.60999972 1.0879084e-38
0.5128305 -0.20745343 0.60999972 1.0879084e-38
0.51751739 -0.20779793 0.60999972 1.0879084e-38
0.52205342 -0.20734794 0.60999978 1.0879084e-38
0.5279609 -0.20758054 0.60999984 1.0879084e-38
0.53276545 -0.20738177 0.6099999 1.0879084e-38
0.53615165 -0.20759794 0.6099999 1.0879084e-38
0.8324883 -0.20564789 0.60707909 1.097128e-38
0.32999837 -0.20255128 0.60737908 0
0.33217159 -0.2023553 0.60999864 1.0879084e-38
0.3378894 -0.20248742 0.60999864 1.0879084e-38
0.34270182 -0.20241287 0.60999864 1.0879084e-38
0.34722227 -0.20266493 0.6099987 1.0879084e-38
0.35219443 -0.20243487 0.6099987 1.0879084e-38
0.35741359 -0.20246825 0.6099987 1.0879084e-38
0.3624087 -0.20239225 0.6099987 1.0879084e-38
0.36710176 -0.20264892 0.60999876 1.0879084e-38
0.3722645 -0.20241447 0.60999876 1.0879084e-38
0.37774807 -0.20262572 0.60999876 1.0879084e-38
0.38287324 -0.20237079 0.60999882 1.0879084e-38
0.38706091 -0.2023664 0.60999888 1.0879084e-38
0.39249367 -0.20246471 0.609999 1.0879084e-38
0.39797908 -0.20256424 0.60999888 1.0879084e-38
0.40228432 -0.20256051 0.60999906 1.0879084e-38
0.40709019 -0.2025034 0.60999906 1.0879084e-38
0.41279295 -0.20249102 0.60999912 1.0879084e-38
0.41809803 -0.20249407 0.60999912 1.0879084e-38
0.42273709 -0.20247006 0.60999918 1.0879084e-38
0.42787018 -0.20264606 0.60999918 1.0879084e-38
0.43257597 -0.20237304 0.60999918 1.0879084e-38
0.43748522 -0.20258422 0.60999924 1.0879084e-38
0.44260341 -0.20252593 0.60999924 1.0879084e-38
0.44726571 -0.20252195 0.60999924 1.0879084e-38
0.45257702 -0.20225762 0.60958791 1.0879084e-38
0.4575555 -0.20267898 0.60999942 1.0879084e-38
0.46251231 -0.20239809 0.60999948 1.0879084e-38
0.46785775 -0.20233703 0.60999954 1.0879084e-38
0.4730781 -0.20255609 0.60999948 1.0879084e-38
0.47733712 -0.20224766 0.60999954 1.0879084e-38
0.48188263 -0.20266157 0.6099996 1.0879084e-38
0.48705006 -0.2023747 0.6099996 1.0879084e-38
0.49262381 -0.20257735 0.60999966 1.0879084e-38
0.4980678 -0.20253587 0.60999966 1.0879084e-38
0.50251001 -0.20222075 0.60999966 1.0879084e-38
0.5072521 -0.20264344 0.60999972 1.0879084e-38
0.51264381 -0.2023503 0.60999972 1.0879084e-38
0.51751739 -0.20292588 0.60999972 1.0879084e-38
0.52224308 -0.20216693 0.60999984 1.0879084e-38
0.52786088 -0.20274064 0.60988224 1.0879084e-38
0.53276545 -0.2024488 0.6099999 1.0879084e-38
0.53677589 -0.20270596 0.60999995 1.0879084e-38
0.32999837 -0.1977296 0.60737908 0
0.33250064 -0.1973487 0.60999864 1.0879084e-38
0.33775297 -0.19747257 0.60999864 1.0879084e-38
0.34243801 -0.19757657 0.60999864 1.0879084e-38
0.3475607 -0.19758581 0.6099987 1.0879084e-38
0.35246322 -0.19748771 0.6099987 1.0879084e-38
0.35710794 -0.19754274 0.6099987 1.0879084e-38
0.36213487 -0.19746475 0.6099987 1.0879084e-38
0.3674531 -0.1974736 0.60999876 1.0879084e-38
0.37254363 -0.19737311 0.60999876 1.0879084e-38
0.37732655 -0.19760989 0.60999876 1.0879084e-38
0.38258877 -0.19734864 0.60999882 1.0879084e-38
0.38736129 -0.19749577 0.60999888 1.0879084e-38
0.39231917 -0.1975527 0.60999888 1.0879084e-38
0.3976866 -0.19747211 0.60999888 1.0879084e-38
0.4025932 -0.19762187 0.60999906 1.0879084e-38
0.40693468 -0.19759876 0.60999906 1.0879084e-38
0.41250768 -0.19749132 0.60999912 1.0879084e-38
0.41824228 -0.19750462 0.60999912 1.0879084e-38
0.42288271 -0.19746064 0.60999912 1.0879084e-38
0.42756164 -0.19741565 0.60999918 1.0879084e-38
0.43273893 -0.19756922 0.60999918 1.0879084e-38
0.4373211 -0.19754523 0.60999924 1.0879084e-38
0.44243732 -0.19746372 0.60999924 1.0879084e-38
0.44743288 -0.19765672 0.60999924 1.0879084e-38
0.45230335 -0.19735703 0.60999924 1.0879084e-38
0.45772576 -0.19776943 0.60999936 1.0879084e-38
0.46268395 -0.19746834 0.60999942 1.0879084e-38
0.46768484 -0.19716385 0.60999954 1.0879084e-38
0.47325295 -0.1975808 0.60999954 1.0879084e-38
0.47746286 -0.19711101 0.6099996 1.0879084e-38
0.4820601 -0.19764903 0.6099996 1.0879084e-38
0.48722899 -0.19734107 0.6099996 1.0879084e-38
0.49262357 -0.19753964 0.6099996 1.0879084e-38
0.4980678 -0.19774151 0.60999966 1.0879084e-38
0.5026412 -0.1969745 0.60999966 1.0879084e-38
0.50725216 -0.19781239 0.60999966 1.0879084e-38
0.5128305 -0.19720834 0.60999972 1.0879084e-38
0.51751739 -0.19805385 0.60999972 1.0879084e-38
0.52224308 -0.19727601 0.60999978 1.0879084e-38
0.52796066 -0.19748011 0.60999984 1.0879084e-38
0.53276545 -0.19751586 0.6099999 1.0879084e-38
0.53663719 -0.19737862 0.6099999 1.0879084e-38
0.32999837 -0.19290796 0.60737908 0
0.33211371 -0.19254494 0.60999864 1.0879084e-38
0.3376157 -0.19245988 0.60999864 1.0879084e-38
0.34268916 -0.19244371 0.60999864 1.0879084e-38
0.34742168 -0.19252503 0.60999864 1.0879084e-38
0.35219446 -0.19260746 0.6099987 1.0879084e-38
0.35741359 -0.19259219 0.6099987 1.0879084e-38
0.3624087 -0.19246964 0.6099987 1.0879084e-38
0.36714166 -0.19250292 0.60999876 1.0879084e-38
0.37226447 -0.19239999 0.60999876 1.0879084e-38
0.37774804 -0.19256015 0.60999876 1.0879084e-38
0.38272423 -0.19251734 0.60999888 1.0879084e-38
0.38707444 -0.19245411 0.60999888 1.0879084e-38
0.3927106 -0.19261675 0.60999888 1.0879084e-38
0.39782587 -0.19257361 0.60999894 1.0879084e-38
0.40229824 -0.19250974 0.609999 1.0879084e-38
0.40724611 -0.19263789 0.60999912 1.0879084e-38
0.41238704 -0.19267336 0.60999912 1.0879084e-38
0.41793928 -0.19232006 0.60999912 1.0879084e-38
0.42304301 -0.19269717 0.60999918 1.0879084e-38
0.42770857 -0.19238406 0.60999918 1.0879084e-38
0.43257576 -0.19255131 0.60999918 1.0879084e-38
0.4374854 -0.19272138 0.60999924 1.0879084e-38
0.4422718 -0.19240358 0.60999924 1.0879084e-38
0.44758484 -0.19253598 0.60999924 1.0879084e-38
0.45247206 -0.19246975 0.6099993 1.0879084e-38
0.45740068 -0.19240223 0.6099993 1.0879084e-38
0.46285573 -0.19253631 0.60999948 1.0879084e-38
0.46785796 -0.1922114 0.60999942 1.0879084e-38
0.47307792 -0.19238383 0.60999954 1.0879084e-38
0.47746289 -0.19239895 0.6099996 1.0879084e-38
0.48188242 -0.19241311 0.6099996 1.0879084e-38
0.48722899 -0.19259003 0.6099996 1.0879084e-38
0.49244317 -0.19225769 0.60999966 1.0879084e-38
0.49825019 -0.19265969 0.60999966 1.0879084e-38
0.5026412 -0.19216186 0.60999966 1.0879084e-38
0.50743735 -0.19269173 0.60999966 1.0879084e-38
0.5128305 -0.19235504 0.60999972 1.0879084e-38
0.51765192 -0.19274117 0.60999972 1.0879084e-38
0.52224308 -0.19238509 0.60999978 1.0879084e-38
0.5279609 -0.19229333 0.60999978 1.0879084e-38
0.53276545 -0.19258292 0.6099999 1.0879084e-38
0.53663719 -0.19243021 0.6099999 1.0879084e-38
0.32999837 -0.18739749 0.60737908 0
0.33244249 -0.18753573 0.60999864 1.0879084e-38
0.33794817 -0.18742378 0.60999864 1.0879084e-38
0.34242553 -0.18760994 0.60999864 1.0879084e-38
0.34728184 -0.1874664 0.60999864 1.0879084e-38
0.35245028 -0.18742551 0.6099987 1.0879084e-38
0.35727194 -0.18748458 0.6099987 1.0879084e-38
0.3621349 -0.18754472 0.6099987 1.0879084e-38
0.36745316 -0.18750399 0.60999876 1.0879084e-38
0.37254357 -0.18735604 0.60999876 1.0879084e-38
0.37732655 -0.18754826 0.60999876 1.0879084e-38
0.38272426 -0.18746136 0.60999882 1.0879084e-38
0.38721102 -0.18760222 0.60999894 1.0879084e-38
0.39227733 -0.18753545 0.60999888 1.0879084e-38
0.39796498 -0.1876732 0.60999888 1.0879084e-38
0.4024387 -0.18759005 0.609999 1.0879084e-38
0.40694875 -0.18750554 0.60999912 1.0879084e-38
0.41279301 -0.18764509 0.60999912 1.0879084e-38
0.41809803 -0.18757752 0.60999912 1.0879084e-38
0.42273703 -0.18749176 0.60999912 1.0879084e-38
0.42787018 -0.18759941 0.60999918 1.0879084e-38
0.43241304 -0.18753546 0.60999918 1.0879084e-38
0.43763474 -0.1876443 0.60999924 1.0879084e-38
0.44243753 -0.18755804 0.60999924 1.0879084e-38
0.44726577 -0.18721709 0.60999924 1.0879084e-38
0.45264077 -0.18758021 0.6099993 1.0879084e-38
0.4575555 -0.18723713 0.60999942 1.0879084e-38
0.46268377 -0.18738601 0.60999948 1.0879084e-38
0.46785796 -0.1875377 0.60999948 1.0879084e-38
0.4729034 -0.18718904 0.60999954 1.0879084e-38
0.47746289 -0.18768688 0.6099996 1.0879084e-38
0.48170537 -0.18717942 0.6099996 1.0879084e-38
0.48722893 -0.18783894 0.6099996 1.0879084e-38
0.49262375 -0.1871997 0.6099996 1.0879084e-38
0.49806774 -0.18761927 0.60999966 1.0879084e-38
0.5026412 -0.18734924 0.60999966 1.0879084e-38
0.5072521 -0.18761271 0.60999966 1.0879084e-38
0.5128305 -0.18750171 0.60999972 1.0879084e-38
0.51751739 -0.18749712 0.60999972 1.0879084e-38
0.52224308 -0.18749419 0.60999978 1.0879084e-38
0.5279609 -0.18737957 0.60999978 1.0879084e-38
0.53276557 -0.18764998 0.6099999 1.0879084e-38
0.53663713 -0.18748182 0.6099999 1.0879084e-38
0.32999837 -0.18257584 0.60737908 0
0.33230743 -0.18254912 0.60999864 1.0879084e-38
0.33755714 -0.18259844 0.60999864 1.0879084e-38
0.34256363 -0.1824909 0.60999864 1.0879084e-38
0.34762058 -0.18238184 0.6099987 1.0879084e-38
0.35218179 -0.18254782 0.6099987 1.0879084e-38
0.35712951 -0.18237922 0.6099987 1.0879084e-38
0.36240876 -0.18254703 0.6099987 1.0879084e-38
0.3671416 -0.1825362 0.60999876 1.0879084e-38
0.37226447 -0.18238555 0.60999876 1.0879084e-38
0.37774807 -0.18249461 0.60999876 1.0879084e-38
0.38272423 -0.1824054 0.60999888 1.0879084e-38
0.38721099 -0.18252538 0.60999888 1.0879084e-38
0.3927106 -0.18241176 0.60999888 1.0879084e-38
0.3976728 -0.18258503 0.609999 1.0879084e-38
0.40257904 -0.18266846 0.60999906 1.0879084e-38
0.40709034 -0.18256454 0.60999912 1.0879084e-38
0.41234374 -0.18247268 0.60999912 1.0879084e-38
0.41824234 -0.18258615 0.60999912 1.0879084e-38
0.42288277 -0.18248041 0.60999918 1.0879084e-38
0.42756167 -0.18237311 0.60999918 1.0879084e-38
0.43257591 -0.18273096 0.60999918 1.0879084e-38
0.43732113 -0.18237278 0.60999918 1.0879084e-38
0.44260341 -0.1827103 0.60999924 1.0879084e-38
0.44743288 -0.18234964 0.60999924 1.0879084e-38
0.45247182 -0.18247584 0.6099993 1.0879084e-38
0.4575555 -0.18260457 0.60999936 1.0879084e-38
0.46251234 -0.18223789 0.60999948 1.0879084e-38
0.46803126 -0.18258229 0.60999954 1.0879084e-38
0.4730781 -0.18221302 0.60999954 1.0879084e-38
0.47746289 -0.18297482 0.6099996 1.0879084e-38
0.48188263 -0.18216613 0.6099996 1.0879084e-38
0.48740807 -0.18280154 0.6099996 1.0879084e-38
0.49262375 -0.18242711 0.6099996 1.0879084e-38
0.49806768 -0.18255861 0.60999966 1.0879084e-38
0.5026412 -0.18253662 0.60999966 1.0879084e-38
0.50725192 -0.18251333 0.60999966 1.0879084e-38
